ply
format ascii 1.0
element vertex 1108
property float x
property float y
property float z
property uchar red
property uchar green
property uchar blue
end_header
9.541667 -3.000000 -16.666666 183 154 114 
9.608356 -3.007833 -16.710182 184 155 115 
9.675393 -3.015707 -16.753927 176 147 107 
9.717278 -3.015707 -16.753927 185 156 116 
9.759162 -3.015707 -16.753927 190 161 121 
9.750000 -3.000000 -16.666666 180 151 111 
9.791667 -3.000000 -16.666666 183 154 114 
9.833333 -3.000000 -16.666666 186 154 116 
6.330935 -2.800959 -15.347722 197 168 128 
6.461538 -2.807692 -15.384615 198 169 129 
6.484413 -2.800959 -15.347722 194 165 123 
6.522782 -2.800959 -15.347722 192 163 121 
6.545455 -2.794258 -15.311005 191 162 120 
6.583732 -2.794258 -15.311005 188 159 117 
6.622010 -2.794258 -15.311005 189 160 118 
6.660287 -2.794258 -15.311005 193 164 122 
6.714628 -2.800959 -15.347722 192 163 121 
6.769231 -2.807692 -15.384615 192 163 121 
6.807693 -2.807692 -15.384615 195 166 124 
6.846154 -2.807692 -15.384615 199 170 128 
6.934625 -2.828087 -15.496368 197 168 128 
5.634652 -2.199623 -12.052731 190 161 121 
5.664783 -2.199623 -12.052731 195 166 126 
5.705660 -2.203773 -12.075472 202 173 133 
5.746692 -2.207940 -12.098299 195 166 126 
5.776937 -2.207940 -12.098299 194 165 125 
5.807183 -2.207940 -12.098299 199 170 130 
5.848485 -2.212121 -12.121212 201 172 132 
5.889943 -2.216319 -12.144213 197 168 128 
5.920304 -2.216319 -12.144213 197 168 128 
5.961977 -2.220532 -12.167300 198 169 129 
5.992395 -2.220532 -12.167300 195 166 126 
6.034286 -2.224762 -12.190476 191 162 122 
6.111324 -2.241843 -12.284069 190 161 121 
6.201550 -2.263566 -12.403101 190 161 121 
8.429667 -2.987212 -16.368286 188 159 119 
8.363636 -2.949495 -16.161615 185 156 116 
8.361809 -2.934673 -16.080402 187 158 118 
8.360000 -2.920000 -16.000000 187 158 118 
8.400000 -2.920000 -16.000000 185 156 116 
8.440000 -2.920000 -16.000000 192 163 121 
8.501253 -2.927318 -16.040100 193 164 122 
8.541353 -2.927318 -16.040100 186 157 115 
8.603015 -2.934673 -16.080402 187 158 114 
8.643216 -2.934673 -16.080402 187 158 116 
8.705290 -2.942065 -16.120907 186 157 115 
9.458333 -3.041667 -16.666666 184 155 115 
9.500000 -3.041667 -16.666666 183 154 114 
9.516883 -3.033766 -16.623377 184 155 115 
9.583333 -3.041667 -16.666666 188 159 119 
9.625000 -3.041667 -16.666666 181 152 112 
9.666667 -3.041667 -16.666666 182 153 113 
9.708333 -3.041667 -16.666666 185 156 116 
9.750000 -3.041667 -16.666666 187 158 118 
9.791667 -3.041667 -16.666666 198 169 129 
9.833333 -3.041667 -16.666666 197 168 128 
9.875000 -3.041667 -16.666666 190 158 119 
6.484413 -2.839329 -15.347722 196 167 125 
6.507177 -2.832536 -15.311005 199 170 128 
6.545455 -2.832536 -15.311005 194 165 123 
6.568019 -2.825776 -15.274463 192 163 121 
6.606205 -2.825776 -15.274463 195 166 124 
6.644392 -2.825776 -15.274463 200 171 129 
6.714628 -2.839329 -15.347722 191 162 120 
6.769231 -2.846154 -15.384615 188 159 117 
6.807693 -2.846154 -15.384615 192 163 121 
6.846154 -2.846154 -15.384615 198 169 127 
6.901205 -2.853012 -15.421687 196 167 125 
5.634652 -2.229755 -12.052731 200 171 131 
5.664783 -2.229755 -12.052731 207 178 138 
5.705660 -2.233962 -12.075472 198 169 129 
5.746692 -2.238185 -12.098299 196 167 127 
5.776937 -2.238185 -12.098299 193 164 124 
5.818182 -2.242424 -12.121212 200 171 131 
5.848485 -2.242424 -12.121212 204 175 135 
5.878788 -2.242424 -12.121212 201 172 132 
5.920304 -2.246679 -12.144213 198 169 129 
5.950664 -2.246679 -12.144213 200 171 131 
5.992395 -2.250951 -12.167300 197 168 128 
6.034286 -2.255238 -12.190476 189 160 120 
6.099617 -2.268199 -12.260536 188 159 119 
8.516796 -3.059432 -16.537468 193 164 124 
8.470589 -3.028133 -16.368286 192 163 121 
8.404040 -2.989899 -16.161615 187 158 118 
8.402010 -2.974874 -16.080402 190 161 121 
8.421053 -2.967418 -16.040100 191 162 122 
8.461153 -2.967418 -16.040100 189 160 118 
8.522614 -2.974874 -16.080402 188 159 117 
8.562814 -2.974874 -16.080402 187 158 116 
8.603015 -2.974874 -16.080402 189 160 116 
8.664988 -2.982368 -16.120907 188 159 117 
8.838875 -3.028133 -16.368286 190 161 119 
9.458333 -3.083333 -16.666666 186 157 117 
9.475325 -3.075325 -16.623377 183 154 114 
9.516883 -3.075325 -16.623377 183 154 114 
9.558441 -3.075325 -16.623377 187 155 116 
9.625000 -3.083333 -16.666666 185 156 116 
9.666667 -3.083333 -16.666666 189 160 120 
9.708333 -3.083333 -16.666666 190 161 121 
9.750000 -3.083333 -16.666666 190 161 121 
9.791667 -3.083333 -16.666666 191 162 122 
9.833333 -3.083333 -16.666666 189 157 118 
9.900784 -3.091384 -16.710182 190 158 119 
6.468900 -2.870813 -15.311005 201 172 130 
6.491647 -2.863962 -15.274463 202 173 131 
6.529833 -2.863962 -15.274463 195 166 124 
6.552381 -2.857143 -15.238095 192 163 121 
6.606205 -2.863962 -15.274463 190 161 119 
6.644392 -2.863962 -15.274463 184 155 113 
6.714628 -2.877698 -15.347722 191 162 120 
6.769231 -2.884615 -15.384615 195 166 124 
6.807693 -2.884615 -15.384615 199 170 128 
6.846154 -2.884615 -15.384615 197 168 126 
5.624060 -2.255639 -12.030075 203 174 134 
5.664783 -2.259887 -12.052731 198 169 129 
5.716446 -2.268431 -12.098299 193 164 124 
5.746692 -2.268431 -12.098299 197 168 128 
5.787879 -2.272727 -12.121212 197 168 128 
5.818182 -2.272727 -12.121212 195 166 126 
5.848485 -2.272727 -12.121212 189 160 120 
5.878788 -2.272727 -12.121212 184 155 115 
5.909091 -2.272727 -12.121212 183 154 114 
5.950664 -2.277040 -12.144213 182 153 113 
5.992395 -2.281369 -12.167300 187 158 118 
6.022814 -2.281369 -12.167300 191 162 122 
6.099617 -2.298851 -12.260536 190 161 121 
6.142035 -2.303263 -12.284069 190 161 121 
8.605744 -3.133159 -16.710182 185 156 116 
8.558140 -3.100775 -16.537468 186 157 115 
8.511509 -3.069054 -16.368286 187 158 118 
8.444445 -3.030303 -16.161615 185 155 117 
8.442211 -3.015075 -16.080402 185 156 116 
8.482412 -3.015075 -16.080402 185 156 114 
8.522614 -3.015075 -16.080402 185 156 114 
8.671756 -3.053435 -16.284986 184 155 113 
8.757033 -3.069054 -16.368286 184 155 111 
8.797954 -3.069054 -16.368286 188 159 117 
8.930233 -3.100775 -16.537468 190 161 119 
8.994819 -3.108808 -16.580311 192 163 121 
9.458333 -3.125000 -16.666666 190 161 121 
9.475325 -3.116883 -16.623377 184 155 115 
9.516883 -3.116883 -16.623377 183 154 114 
9.558441 -3.116883 -16.623377 180 151 111 
9.625000 -3.125000 -16.666666 186 157 117 
9.666667 -3.125000 -16.666666 186 157 117 
9.708333 -3.125000 -16.666666 188 159 119 
9.750000 -3.125000 -16.666666 189 160 120 
9.791667 -3.125000 -16.666666 183 154 114 
9.859008 -3.133159 -16.710182 190 158 119 
9.952756 -3.149606 -16.797901 192 160 121 
6.453461 -2.902148 -15.274463 212 183 141 
6.491647 -2.902148 -15.274463 209 180 138 
6.529833 -2.902148 -15.274463 200 171 129 
6.552381 -2.895238 -15.238095 201 172 130 
6.606205 -2.902148 -15.274463 200 171 129 
5.604520 -2.290019 -12.052731 196 167 127 
5.624060 -2.285714 -12.030075 191 162 122 
5.654135 -2.285714 -12.030075 188 159 119 
5.716446 -2.298677 -12.098299 197 168 128 
5.757576 -2.303030 -12.121212 194 165 125 
5.787879 -2.303030 -12.121212 194 165 125 
5.818182 -2.303030 -12.121212 192 163 123 
5.848485 -2.303030 -12.121212 189 160 120 
5.878788 -2.303030 -12.121212 191 162 122 
5.909091 -2.303030 -12.121212 196 167 127 
5.939394 -2.303030 -12.121212 188 159 119 
5.981025 -2.307400 -12.144213 185 156 116 
6.022814 -2.311787 -12.167300 191 162 122 
6.064762 -2.316190 -12.190476 192 163 123 
6.130268 -2.329502 -12.260536 188 159 119 
6.160920 -2.329502 -12.260536 191 162 122 
8.625000 -3.166667 -16.666666 187 158 118 
8.599483 -3.142119 -16.537468 188 159 119 
8.552429 -3.109974 -16.368286 185 156 116 
8.463476 -3.062972 -16.120907 188 159 119 
8.503778 -3.062972 -16.120907 181 152 110 
8.675192 -3.109974 -16.368286 184 155 113 
8.806202 -3.142119 -16.537468 199 170 128 
8.847546 -3.142119 -16.537468 198 169 125 
8.888889 -3.142119 -16.537468 193 164 122 
8.953368 -3.150259 -16.580311 193 164 122 
9.018182 -3.158442 -16.623377 189 160 118 
9.083333 -3.166667 -16.666666 186 157 115 
9.458333 -3.166667 -16.666666 193 164 124 
9.475325 -3.158442 -16.623377 192 163 123 
9.516883 -3.158442 -16.623377 191 162 122 
9.558441 -3.158442 -16.623377 191 162 122 
9.625000 -3.166667 -16.666666 195 166 126 
9.691906 -3.174935 -16.710182 189 160 120 
9.708333 -3.166667 -16.666666 184 155 115 
9.775457 -3.174935 -16.710182 185 156 116 
9.817232 -3.174935 -16.710182 183 154 114 
9.910761 -3.191601 -16.797901 191 159 120 
6.453461 -2.940334 -15.274463 200 171 129 
6.491647 -2.940334 -15.274463 196 167 125 
6.529833 -2.940334 -15.274463 190 161 119 
5.593985 -2.315789 -12.030075 195 166 126 
5.624060 -2.315789 -12.030075 190 161 121 
5.654135 -2.315789 -12.030075 195 166 126 
5.716446 -2.328923 -12.098299 195 166 126 
5.757576 -2.333333 -12.121212 192 163 123 
5.787879 -2.333333 -12.121212 190 161 121 
5.818182 -2.333333 -12.121212 192 163 123 
5.848485 -2.333333 -12.121212 197 168 128 
5.878788 -2.333333 -12.121212 202 173 133 
5.909091 -2.333333 -12.121212 198 169 129 
5.939394 -2.333333 -12.121212 193 164 124 
5.981025 -2.337761 -12.144213 189 160 120 
6.011385 -2.337761 -12.144213 188 159 119 
6.064762 -2.346667 -12.190476 188 159 119 
6.118547 -2.355641 -12.237094 192 163 123 
6.149139 -2.355641 -12.237094 191 162 122 
6.227360 -2.373796 -12.331407 191 162 122 
8.621761 -3.191710 -16.580311 187 157 119 
8.552429 -3.150895 -16.368286 183 153 115 
8.527919 -3.126904 -16.243654 181 152 112 
8.568528 -3.126904 -16.243654 175 146 104 
8.764858 -3.183463 -16.537468 178 149 107 
8.829016 -3.191710 -16.580311 187 158 116 
8.893506 -3.200000 -16.623377 190 161 117 
8.935065 -3.200000 -16.623377 187 158 118 
9.000000 -3.208333 -16.666666 185 156 114 
9.018182 -3.200000 -16.623377 184 155 113 
9.083333 -3.208333 -16.666666 188 159 117 
9.500000 -3.208333 -16.666666 197 168 128 
9.541667 -3.208333 -16.666666 195 166 126 
9.583333 -3.208333 -16.666666 195 166 126 
9.625000 -3.208333 -16.666666 190 161 121 
9.691906 -3.216710 -16.710182 188 159 119 
9.733682 -3.216710 -16.710182 186 157 117 
9.801047 -3.225131 -16.753927 180 151 111 
9.894737 -3.242105 -16.842106 182 153 113 
6.453461 -2.978520 -15.274463 195 166 124 
5.593985 -2.345865 -12.030075 187 158 118 
5.624060 -2.345865 -12.030075 193 164 124 
5.654135 -2.345865 -12.030075 189 160 120 
5.727273 -2.363636 -12.121212 182 153 113 
5.757576 -2.363636 -12.121212 194 165 125 
5.798862 -2.368121 -12.144213 196 167 127 
5.829222 -2.368121 -12.144213 194 165 125 
5.859582 -2.368121 -12.144213 192 163 123 
5.889943 -2.368121 -12.144213 188 159 119 
5.920304 -2.368121 -12.144213 185 156 116 
5.939394 -2.363636 -12.121212 191 162 122 
5.981025 -2.368121 -12.144213 196 167 127 
6.011385 -2.368121 -12.144213 194 165 125 
6.064762 -2.377143 -12.190476 193 164 124 
6.095238 -2.377143 -12.190476 196 167 127 
6.149139 -2.386233 -12.237094 196 167 127 
6.191571 -2.390805 -12.260536 193 164 124 
6.258189 -2.404624 -12.331407 191 162 122 
8.574359 -3.200000 -16.410257 190 161 121 
8.549619 -3.175573 -16.284986 189 160 118 
8.590331 -3.175573 -16.284986 188 159 117 
8.764858 -3.224806 -16.537468 185 156 114 
8.829016 -3.233161 -16.580311 187 158 116 
8.893506 -3.241559 -16.623377 185 156 112 
8.935065 -3.241559 -16.623377 185 156 114 
9.000000 -3.250000 -16.666666 190 161 119 
9.041667 -3.250000 -16.666666 191 162 120 
9.083333 -3.250000 -16.666666 190 161 119 
9.633508 -3.267016 -16.753927 195 166 126 
9.675393 -3.267016 -16.753927 182 153 113 
9.852632 -3.284210 -16.842106 187 158 118 
9.894737 -3.284210 -16.842106 191 162 122 
5.624060 -2.375940 -12.030075 185 156 114 
5.664783 -2.380414 -12.052731 186 157 115 
5.727273 -2.393939 -12.121212 186 157 115 
5.768501 -2.398482 -12.144213 194 165 125 
5.798862 -2.398482 -12.144213 194 165 125 
5.840304 -2.403042 -12.167300 194 165 125 
5.870722 -2.403042 -12.167300 189 160 120 
5.901141 -2.403042 -12.167300 183 154 114 
5.931559 -2.403042 -12.167300 190 161 121 
5.950664 -2.398482 -12.144213 193 164 124 
5.981025 -2.398482 -12.144213 196 167 127 
6.011385 -2.398482 -12.144213 198 169 127 
6.064762 -2.407619 -12.190476 196 167 125 
6.095238 -2.407619 -12.190476 191 162 120 
6.149139 -2.416826 -12.237094 190 161 119 
6.179732 -2.416826 -12.237094 184 155 113 
6.234165 -2.426104 -12.284069 181 152 110 
8.851948 -3.283117 -16.623377 187 158 116 
8.893506 -3.283117 -16.623377 189 160 118 
8.958333 -3.291667 -16.666666 188 159 117 
9.000000 -3.291667 -16.666666 189 160 118 
9.041667 -3.291667 -16.666666 190 161 119 
9.083333 -3.291667 -16.666666 192 163 121 
6.444062 -2.175559 -11.015491 193 164 124 
6.471601 -2.175559 -11.015491 187 158 118 
6.510345 -2.179310 -11.034483 180 151 111 
6.537931 -2.179310 -11.034483 192 163 123 
5.707780 -2.428843 -12.144213 191 162 120 
5.738141 -2.428843 -12.144213 193 164 122 
5.779468 -2.433460 -12.167300 192 163 123 
5.820952 -2.438095 -12.190476 193 164 124 
5.851429 -2.438095 -12.190476 195 166 126 
5.893130 -2.442748 -12.213740 192 163 123 
5.923664 -2.442748 -12.213740 192 163 123 
5.954198 -2.442748 -12.213740 198 169 129 
5.961977 -2.433460 -12.167300 195 166 126 
5.992395 -2.433460 -12.167300 190 161 121 
6.022814 -2.433460 -12.167300 190 161 119 
6.064762 -2.438095 -12.190476 190 161 119 
6.106870 -2.442748 -12.213740 189 160 118 
6.149139 -2.447419 -12.237094 191 162 120 
6.191571 -2.452107 -12.260536 187 158 116 
6.222222 -2.452107 -12.260536 181 152 110 
9.041667 -3.333333 -16.666666 184 155 113 
9.083333 -3.333333 -16.666666 187 158 116 
6.438687 -2.210708 -11.053540 186 157 117 
6.444062 -2.203098 -11.015491 185 156 116 
6.471601 -2.203098 -11.015491 181 152 112 
6.510345 -2.206897 -11.034483 175 146 106 
6.537931 -2.206897 -11.034483 177 148 108 
6.554217 -2.203098 -11.015491 171 143 103 
6.593103 -2.206897 -11.034483 176 144 105 
5.760000 -2.468571 -12.190476 194 165 123 
5.790476 -2.468571 -12.190476 193 164 124 
5.820952 -2.468571 -12.190476 200 171 131 
5.862596 -2.473282 -12.213740 202 173 133 
6.003809 -2.468571 -12.190476 192 163 123 
6.034286 -2.468571 -12.190476 192 163 121 
6.076336 -2.473282 -12.213740 192 163 121 
6.118547 -2.478011 -12.237094 191 162 120 
6.160920 -2.482759 -12.260536 188 159 117 
6.191571 -2.482759 -12.260536 188 159 117 
6.258189 -2.497110 -12.331407 182 153 111 
6.411054 -2.238342 -11.053540 182 153 113 
6.438687 -2.238342 -11.053540 192 163 123 
6.455173 -2.234483 -11.034483 184 155 115 
6.482759 -2.234483 -11.034483 181 152 112 
6.521589 -2.238342 -11.053540 187 158 118 
6.549223 -2.238342 -11.053540 179 150 110 
6.565517 -2.234483 -11.034483 178 149 109 
6.604490 -2.238342 -11.053540 187 155 116 
6.099617 -2.513410 -12.260536 192 163 121 
6.130268 -2.513410 -12.260536 185 156 114 
6.196532 -2.527938 -12.331407 181 152 110 
6.251451 -2.537718 -12.379110 184 155 113 
6.282398 -2.537718 -12.379110 183 154 112 
6.394464 -2.269896 -11.072664 177 148 108 
6.411054 -2.265976 -11.053540 177 148 108 
6.438687 -2.265976 -11.053540 170 141 101 
6.466321 -2.265976 -11.053540 177 148 108 
6.505190 -2.269896 -11.072664 174 145 105 
6.544194 -2.273830 -11.091854 182 153 113 
6.560554 -2.269896 -11.072664 176 147 107 
6.576857 -2.265976 -11.053540 182 153 113 
6.615917 -2.269896 -11.072664 188 156 117 
6.411054 -2.293610 -11.053540 182 153 113 
6.438687 -2.293610 -11.053540 185 156 116 
6.466321 -2.293610 -11.053540 187 158 118 
6.505190 -2.297578 -11.072664 181 152 112 
6.544194 -2.301560 -11.091854 187 158 118 
6.560554 -2.297578 -11.072664 191 162 122 
6.576857 -2.293610 -11.053540 193 164 124 
6.615917 -2.297578 -11.072664 190 158 119 
6.438687 -2.321244 -11.053540 187 158 118 
6.466321 -2.321244 -11.053540 186 157 117 
6.505190 -2.325259 -11.072664 192 163 123 
6.544194 -2.329289 -11.091854 185 156 116 
6.571924 -2.329289 -11.091854 194 165 125 
6.588235 -2.325259 -11.072664 190 161 121 
5.856209 -3.102396 -13.943356 194 165 123 
5.891068 -3.102396 -13.943356 193 164 122 
5.571429 -3.214286 -14.285714 196 167 125 
5.607143 -3.214286 -14.285714 190 161 119 
5.866667 -3.200000 -14.222222 201 172 132 
5.876106 -3.185841 -14.159292 200 171 131 
5.885463 -3.171806 -14.096916 195 166 126 
5.856209 -3.137255 -13.943356 191 162 120 
5.891068 -3.137255 -13.943356 192 163 121 
5.991189 -3.171806 -14.096916 193 164 122 
5.535714 -3.250000 -14.285714 195 166 124 
5.571429 -3.250000 -14.285714 200 171 129 
5.607143 -3.250000 -14.285714 194 165 123 
5.642857 -3.250000 -14.285714 198 169 127 
5.665924 -3.242762 -14.253898 206 177 135 
5.688889 -3.235556 -14.222222 198 169 127 
5.724444 -3.235556 -14.222222 198 169 127 
5.760000 -3.235556 -14.222222 199 170 128 
5.795556 -3.235556 -14.222222 203 174 134 
5.831111 -3.235556 -14.222222 197 168 128 
5.840708 -3.221239 -14.159292 206 174 135 
5.850220 -3.207048 -14.096916 197 168 128 
5.885463 -3.207048 -14.096916 191 162 122 
5.920705 -3.207048 -14.096916 192 163 121 
5.969095 -3.214128 -14.128036 194 165 123 
5.500000 -3.285714 -14.285714 193 164 120 
5.535714 -3.285714 -14.285714 195 166 122 
5.571429 -3.285714 -14.285714 197 168 126 
5.594655 -3.278396 -14.253898 202 173 131 
5.630290 -3.278396 -14.253898 202 173 131 
5.665924 -3.278396 -14.253898 198 169 125 
5.688889 -3.271111 -14.222222 201 172 128 
5.711751 -3.263858 -14.190687 199 170 128 
5.747228 -3.263858 -14.190687 200 171 129 
5.795556 -3.271111 -14.222222 198 169 127 
5.831111 -3.271111 -14.222222 195 166 124 
5.840708 -3.256637 -14.159292 197 168 128 
5.876106 -3.256637 -14.159292 192 163 123 
5.911504 -3.256637 -14.159292 191 162 122 
5.933775 -3.249448 -14.128036 187 158 116 
5.995565 -3.263858 -14.190687 188 159 117 
5.500000 -3.321429 -14.285714 193 162 118 
5.535714 -3.321429 -14.285714 189 158 114 
5.571429 -3.321429 -14.285714 189 160 116 
5.594655 -3.314031 -14.253898 200 171 127 
5.630290 -3.314031 -14.253898 196 164 123 
5.653333 -3.306667 -14.222222 196 164 123 
5.688889 -3.306667 -14.222222 201 172 130 
5.711751 -3.299335 -14.190687 201 172 130 
5.747228 -3.299335 -14.190687 202 173 131 
5.782705 -3.299335 -14.190687 197 168 126 
5.818182 -3.299335 -14.190687 183 156 113 
5.853659 -3.299335 -14.190687 186 159 116 
5.876106 -3.292035 -14.159292 193 164 124 
5.911504 -3.292035 -14.159292 198 169 127 
5.946903 -3.292035 -14.159292 191 162 120 
5.995565 -3.299335 -14.190687 192 163 121 
5.500000 -3.357143 -14.285714 192 161 117 
5.535714 -3.357143 -14.285714 194 163 119 
5.571429 -3.357143 -14.285714 190 161 117 
5.594655 -3.349666 -14.253898 194 165 121 
5.630290 -3.349666 -14.253898 198 166 125 
5.653333 -3.342222 -14.222222 196 163 122 
5.688889 -3.342222 -14.222222 191 162 120 
5.711751 -3.334811 -14.190687 194 165 123 
5.747228 -3.334811 -14.190687 192 163 121 
5.795556 -3.342222 -14.222222 182 153 111 
5.831111 -3.342222 -14.222222 182 158 114 
5.866667 -3.342222 -14.222222 188 161 118 
5.889135 -3.334811 -14.190687 192 163 121 
5.924612 -3.334811 -14.190687 197 168 126 
5.960089 -3.334811 -14.190687 192 163 121 
5.995565 -3.334811 -14.190687 193 164 122 
5.512304 -3.400447 -14.317674 191 160 116 
5.535714 -3.392857 -14.285714 186 157 113 
5.571429 -3.392857 -14.285714 192 163 119 
5.607143 -3.392857 -14.285714 193 164 120 
5.642857 -3.392857 -14.285714 187 155 114 
5.665924 -3.385301 -14.253898 188 155 114 
5.688889 -3.377778 -14.222222 191 162 120 
5.724444 -3.377778 -14.222222 194 165 123 
5.760000 -3.377778 -14.222222 183 154 114 
5.795556 -3.377778 -14.222222 177 148 106 
5.831111 -3.377778 -14.222222 185 161 117 
5.866667 -3.377778 -14.222222 193 166 123 
5.889135 -3.370288 -14.190687 196 167 125 
5.924612 -3.370288 -14.190687 204 175 133 
5.960089 -3.370288 -14.190687 201 172 130 
5.512304 -3.436242 -14.317674 190 159 115 
5.548099 -3.436242 -14.317674 189 158 114 
5.571429 -3.428571 -14.285714 188 157 113 
5.607143 -3.428571 -14.285714 195 164 120 
5.642857 -3.428571 -14.285714 200 169 125 
5.678571 -3.428571 -14.285714 203 170 129 
5.701559 -3.420935 -14.253898 194 165 123 
5.724444 -3.413333 -14.222222 199 172 129 
5.760000 -3.413333 -14.222222 190 161 119 
5.795556 -3.413333 -14.222222 197 168 126 
5.831111 -3.413333 -14.222222 194 167 124 
5.866667 -3.413333 -14.222222 196 169 126 
5.902222 -3.413333 -14.222222 197 168 126 
5.924612 -3.405765 -14.190687 199 170 128 
5.512304 -3.472036 -14.317674 194 163 119 
5.548099 -3.472036 -14.317674 200 169 125 
5.583893 -3.472036 -14.317674 208 177 133 
5.607143 -3.464286 -14.285714 208 177 133 
5.642857 -3.464286 -14.285714 209 177 136 
5.678571 -3.464286 -14.285714 209 177 136 
5.701559 -3.456570 -14.253898 196 167 125 
5.724444 -3.448889 -14.222222 207 178 136 
5.760000 -3.448889 -14.222222 197 168 126 
5.795556 -3.448889 -14.222222 195 166 124 
5.844098 -3.456570 -14.253898 190 163 118 
5.879733 -3.456570 -14.253898 191 164 119 
5.902222 -3.448889 -14.222222 187 158 118 
5.937778 -3.448889 -14.222222 186 157 115 
5.512304 -3.507830 -14.317674 194 163 119 
5.548099 -3.507830 -14.317674 201 170 126 
5.583893 -3.507830 -14.317674 197 166 122 
5.607143 -3.500000 -14.285714 203 172 128 
5.642857 -3.500000 -14.285714 199 167 126 
5.665924 -3.492205 -14.253898 199 167 126 
5.688889 -3.484444 -14.222222 205 176 134 
5.724444 -3.484444 -14.222222 200 171 129 
5.760000 -3.484444 -14.222222 193 164 122 
5.911504 -3.469027 -14.159292 186 157 115 
2.947368 -1.719298 -7.017544 191 162 120 
2.964912 -1.719298 -7.017544 189 160 118 
5.512304 -3.543624 -14.317674 186 155 111 
5.548099 -3.543624 -14.317674 187 156 112 
5.571429 -3.535714 -14.285714 194 163 119 
5.607143 -3.535714 -14.285714 198 165 122 
5.642857 -3.535714 -14.285714 190 158 117 
5.665924 -3.527840 -14.253898 188 156 115 
5.688889 -3.520000 -14.222222 189 160 118 
5.724444 -3.520000 -14.222222 194 165 123 
2.947368 -1.736842 -7.017544 188 159 117 
2.964912 -1.736842 -7.017544 183 154 112 
2.982456 -1.736842 -7.017544 181 152 110 
5.476510 -3.579418 -14.317674 185 156 112 
5.512304 -3.579418 -14.317674 189 156 113 
5.535714 -3.571429 -14.285714 192 161 117 
5.571429 -3.571429 -14.285714 192 159 116 
5.607143 -3.571429 -14.285714 188 155 112 
5.642857 -3.571429 -14.285714 185 153 112 
5.665924 -3.563474 -14.253898 185 153 112 
5.701559 -3.563474 -14.253898 182 150 109 
5.737194 -3.563474 -14.253898 182 153 111 
2.929825 -1.754386 -7.017544 187 158 116 
2.947368 -1.754386 -7.017544 189 160 118 
2.964912 -1.754386 -7.017544 184 155 113 
2.982456 -1.754386 -7.017544 185 156 114 
3.000000 -1.754386 -7.017544 188 159 117 
5.476510 -3.615212 -14.317674 193 162 118 
5.500000 -3.607143 -14.285714 189 156 113 
5.535714 -3.607143 -14.285714 192 159 116 
5.571429 -3.607143 -14.285714 185 152 109 
5.607143 -3.607143 -14.285714 183 152 108 
5.642857 -3.607143 -14.285714 192 160 119 
5.665924 -3.599109 -14.253898 193 161 120 
5.701559 -3.599109 -14.253898 189 157 116 
5.737194 -3.599109 -14.253898 184 152 111 
2.894737 -1.771930 -7.017544 196 167 125 
2.912281 -1.771930 -7.017544 193 164 122 
2.929825 -1.771930 -7.017544 186 157 115 
2.947368 -1.771930 -7.017544 186 157 115 
2.964912 -1.771930 -7.017544 194 165 123 
2.982456 -1.771930 -7.017544 188 159 117 
3.000000 -1.771930 -7.017544 192 163 121 
3.017544 -1.771930 -7.017544 186 157 115 
5.512304 -3.651007 -14.317674 188 155 112 
5.535714 -3.642857 -14.285714 186 153 110 
5.678571 -3.642857 -14.285714 197 165 124 
5.714286 -3.642857 -14.285714 197 165 124 
2.877193 -1.789474 -7.017544 190 161 119 
2.891566 -1.787514 -7.009858 192 163 121 
2.912281 -1.789474 -7.017544 190 161 119 
2.929825 -1.789474 -7.017544 185 156 114 
2.947368 -1.789474 -7.017544 188 159 117 
2.964912 -1.789474 -7.017544 193 164 122 
2.982456 -1.789474 -7.017544 184 155 113 
3.000000 -1.789474 -7.017544 185 156 114 
3.014239 -1.787514 -7.009858 186 157 115 
3.031763 -1.787514 -7.009858 191 162 118 
2.891566 -1.805038 -7.009858 188 159 117 
2.912281 -1.807018 -7.017544 184 155 113 
2.929825 -1.807018 -7.017544 183 154 112 
2.947368 -1.807018 -7.017544 181 152 110 
2.964912 -1.807018 -7.017544 176 147 105 
2.982456 -1.807018 -7.017544 183 154 112 
3.000000 -1.807018 -7.017544 191 162 120 
3.017544 -1.807018 -7.017544 190 161 119 
3.031763 -1.805038 -7.009858 187 158 114 
3.052632 -1.807018 -7.017544 187 158 114 
2.912281 -1.824561 -7.017544 186 157 115 
2.929825 -1.824561 -7.017544 188 159 117 
2.950604 -1.826564 -7.025247 179 150 108 
2.968167 -1.826564 -7.025247 184 155 113 
2.985730 -1.826564 -7.025247 196 167 125 
3.000000 -1.824561 -7.017544 191 162 120 
3.017544 -1.824561 -7.017544 189 160 118 
3.035088 -1.824561 -7.017544 182 151 107 
3.052632 -1.824561 -7.017544 188 157 113 
2.933041 -1.844127 -7.025247 191 162 120 
2.950604 -1.844127 -7.025247 187 158 116 
2.968167 -1.844127 -7.025247 193 164 122 
2.982456 -1.842105 -7.017544 197 168 126 
3.000000 -1.842105 -7.017544 183 154 112 
3.017544 -1.842105 -7.017544 185 153 112 
3.035088 -1.842105 -7.017544 184 153 109 
3.052632 -1.842105 -7.017544 191 160 116 
4.484848 -3.212121 -12.121212 189 155 110 
2.929825 -1.859649 -7.017544 197 168 124 
2.947368 -1.859649 -7.017544 199 170 128 
2.964912 -1.859649 -7.017544 191 162 120 
2.982456 -1.859649 -7.017544 191 162 120 
3.000000 -1.859649 -7.017544 187 160 117 
4.462998 -3.248577 -12.144213 183 149 104 
4.467925 -3.230189 -12.075472 180 146 101 
4.498113 -3.230189 -12.075472 187 153 108 
2.929825 -1.877193 -7.017544 188 159 117 
2.947368 -1.877193 -7.017544 188 159 117 
2.964912 -1.877193 -7.017544 188 159 117 
2.982456 -1.877193 -7.017544 187 158 116 
3.003293 -1.879254 -7.025247 185 158 115 
4.466539 -3.304015 -12.237094 187 154 109 
4.462998 -3.278937 -12.144213 184 151 106 
4.467925 -3.260377 -12.075472 191 158 113 
4.498113 -3.260377 -12.075472 199 166 121 
2.929825 -1.894737 -7.017544 198 169 127 
2.947368 -1.894737 -7.017544 197 170 127 
2.964912 -1.894737 -7.017544 197 168 124 
2.985730 -1.896817 -7.025247 190 161 117 
4.471483 -3.315589 -12.167300 198 165 120 
4.476370 -3.296786 -12.098299 198 165 120 
4.498113 -3.290566 -12.075472 203 170 125 
4.528302 -3.290566 -12.075472 197 164 119 
4.549906 -3.284369 -12.052731 199 166 123 
2.950604 -1.914380 -7.025247 196 167 127 
2.968167 -1.914380 -7.025247 197 168 124 
2.989011 -1.916484 -7.032967 201 172 128 
11.176471 -6.411765 -23.529411 188 159 117 
4.500963 -3.391137 -12.331407 198 165 120 
4.471483 -3.346008 -12.167300 196 163 118 
4.484848 -3.333333 -12.121212 196 163 118 
4.506616 -3.327032 -12.098299 198 165 120 
4.528302 -3.320755 -12.075472 204 170 125 
4.549906 -3.314501 -12.052731 196 163 120 
4.580038 -3.314501 -12.052731 195 162 119 
2.971429 -1.934066 -7.032967 194 162 121 
11.140740 -6.518518 -23.703703 195 166 124 
11.117647 -6.470588 -23.529411 191 162 120 
11.176471 -6.470588 -23.529411 189 160 118 
11.235294 -6.470588 -23.529411 187 160 117 
4.465117 -3.441860 -12.403101 202 169 126 
4.487427 -3.435203 -12.379110 198 165 120 
4.509653 -3.428571 -12.355212 206 173 128 
4.497132 -3.395793 -12.237094 199 166 121 
4.501901 -3.376426 -12.167300 203 170 125 
4.515152 -3.363636 -12.121212 200 167 122 
4.528302 -3.350943 -12.075472 201 168 123 
4.549906 -3.344633 -12.052731 192 159 114 
4.580038 -3.344633 -12.052731 196 163 120 
11.140740 -6.577778 -23.703703 181 152 110 
11.158671 -6.553505 -23.616236 183 154 112 
11.176471 -6.529412 -23.529411 188 159 117 
11.235294 -6.529412 -23.529411 180 151 109 
11.294118 -6.529412 -23.529411 179 150 108 
4.465117 -3.472868 -12.403101 198 167 121 
4.487427 -3.466151 -12.379110 197 166 122 
4.518375 -3.466151 -12.379110 195 164 120 
4.505747 -3.432950 -12.260536 195 164 120 
4.501901 -3.406844 -12.167300 195 163 122 
4.506616 -3.387524 -12.098299 196 165 121 
4.519774 -3.374765 -12.052731 197 166 122 
4.549906 -3.374765 -12.052731 197 166 120 
4.580038 -3.374765 -12.052731 196 165 118 
4.610169 -3.374765 -12.052731 191 160 114 
11.625000 -7.000000 -25.000000 194 165 121 
11.205993 -6.711610 -23.970037 175 146 102 
11.182157 -6.661710 -23.791822 177 148 104 
11.200000 -6.637037 -23.703703 186 157 113 
11.217712 -6.612546 -23.616236 188 159 115 
11.235294 -6.588235 -23.529411 190 161 117 
11.294118 -6.588235 -23.529411 186 157 113 
11.352942 -6.588235 -23.529411 185 158 113 
4.501901 -3.437262 -12.167300 195 164 120 
4.481203 -3.398496 -12.030075 189 158 114 
4.485981 -3.379439 -11.962617 190 159 115 
4.515888 -3.379439 -11.962617 192 161 115 
4.545794 -3.379439 -11.962617 189 158 111 
4.575701 -3.379439 -11.962617 189 158 112 
4.554529 -3.341959 -11.829945 193 162 116 
11.562500 -7.062500 -25.000000 190 161 117 
11.625000 -7.062500 -25.000000 185 156 112 
11.248120 -6.796992 -24.060150 179 150 106 
11.223881 -6.746269 -23.880596 190 161 117 
11.283582 -6.746269 -23.880596 194 165 121 
11.301115 -6.721189 -23.791822 185 156 112 
11.276752 -6.671587 -23.616236 193 164 120 
11.294118 -6.647059 -23.529411 191 162 118 
11.352942 -6.647059 -23.529411 193 165 118 
11.411765 -6.647059 -23.529411 194 167 124 
11.470589 -6.647059 -23.529411 197 170 127 
11.529411 -6.647059 -23.529411 190 163 120 
4.456075 -3.409346 -11.962617 186 155 111 
4.460967 -3.390335 -11.895911 189 158 114 
4.490706 -3.390335 -11.895911 190 159 113 
4.512059 -3.384044 -11.873840 184 153 107 
4.516605 -3.365314 -11.808118 186 155 108 
4.546125 -3.365314 -11.808118 191 160 114 
4.584104 -3.371534 -11.829945 189 158 112 
11.500000 -7.125000 -25.000000 193 164 120 
11.562500 -7.125000 -25.000000 193 162 118 
11.625000 -7.125000 -25.000000 191 162 118 
11.687500 -7.125000 -25.000000 194 165 121 
11.750000 -7.125000 -25.000000 194 165 121 
11.368421 -6.857143 -24.060150 188 159 115 
11.343284 -6.805970 -23.880596 186 157 113 
11.360595 -6.780669 -23.791822 189 160 116 
11.335793 -6.730628 -23.616236 188 159 117 
11.352942 -6.705883 -23.529411 190 161 119 
11.411765 -6.705883 -23.529411 195 168 125 
11.470589 -6.705883 -23.529411 192 165 122 
11.529411 -6.705883 -23.529411 185 158 115 
11.588235 -6.705883 -23.529411 182 155 112 
4.431227 -3.420074 -11.895911 185 154 110 
4.452690 -3.413729 -11.873840 194 163 119 
4.482375 -3.413729 -11.873840 187 156 110 
4.487085 -3.394834 -11.808118 187 156 109 
4.516605 -3.394834 -11.808118 186 155 109 
4.546125 -3.394834 -11.808118 188 157 111 
11.375000 -7.187500 -25.000000 192 163 119 
11.437500 -7.187500 -25.000000 192 161 117 
11.500000 -7.187500 -25.000000 193 162 118 
11.562500 -7.187500 -25.000000 192 161 117 
11.625000 -7.187500 -25.000000 194 163 119 
11.687500 -7.187500 -25.000000 196 167 123 
11.750000 -7.187500 -25.000000 193 164 120 
11.812500 -7.187500 -25.000000 193 164 120 
11.875000 -7.187500 -25.000000 194 165 121 
11.445693 -6.891386 -23.970037 191 162 118 
11.420074 -6.840149 -23.791822 189 160 116 
11.394834 -6.789668 -23.616236 185 156 112 
11.411765 -6.764706 -23.529411 188 161 118 
11.470589 -6.764706 -23.529411 187 160 117 
11.529411 -6.764706 -23.529411 188 161 118 
11.630997 -6.789668 -23.616236 190 163 120 
12.375000 -7.187500 -25.000000 189 162 119 
4.398524 -3.424354 -11.808118 187 156 112 
4.419889 -3.418048 -11.786372 187 156 112 
4.449356 -3.418048 -11.786372 187 156 110 
4.470588 -3.411765 -11.764706 192 161 115 
4.500000 -3.411765 -11.764706 189 158 112 
4.529412 -3.411765 -11.764706 186 155 109 
11.312500 -7.250000 -25.000000 191 160 116 
11.375000 -7.250000 -25.000000 189 158 114 
11.437500 -7.250000 -25.000000 188 155 112 
11.500000 -7.250000 -25.000000 186 155 111 
11.562500 -7.250000 -25.000000 188 157 113 
11.625000 -7.250000 -25.000000 191 160 116 
11.687500 -7.250000 -25.000000 192 163 119 
11.750000 -7.250000 -25.000000 193 164 120 
11.812500 -7.250000 -25.000000 198 169 125 
11.875000 -7.250000 -25.000000 193 164 120 
11.937500 -7.250000 -25.000000 187 158 114 
11.462687 -6.925373 -23.880596 188 159 115 
11.394834 -6.848709 -23.616236 182 153 111 
11.453875 -6.848709 -23.616236 178 151 108 
11.512915 -6.848709 -23.616236 183 156 113 
11.571956 -6.848709 -23.616236 185 158 115 
11.674074 -6.874074 -23.703703 184 157 114 
11.954717 -7.003774 -24.150944 183 156 113 
12.437500 -7.250000 -25.000000 190 163 120 
11.940298 -6.925373 -23.880596 184 160 116 
4.369004 -3.453875 -11.808118 189 158 114 
4.374312 -3.434862 -11.743119 196 165 121 
4.403670 -3.434862 -11.743119 191 160 116 
4.433028 -3.434862 -11.743119 196 165 119 
4.446069 -3.422303 -11.700183 194 163 117 
4.475320 -3.422303 -11.700183 187 156 109 
4.480000 -3.403636 -11.636364 184 153 107 
11.250000 -7.312500 -25.000000 195 164 120 
11.312500 -7.312500 -25.000000 196 165 121 
11.375000 -7.312500 -25.000000 194 161 118 
11.437500 -7.312500 -25.000000 190 159 115 
11.500000 -7.312500 -25.000000 191 160 116 
11.562500 -7.312500 -25.000000 194 161 118 
11.625000 -7.312500 -25.000000 196 165 121 
11.687500 -7.312500 -25.000000 193 164 120 
11.750000 -7.312500 -25.000000 186 157 113 
11.812500 -7.312500 -25.000000 183 154 110 
11.875000 -7.312500 -25.000000 182 153 109 
11.937500 -7.312500 -25.000000 182 153 109 
11.505618 -7.011236 -23.970037 186 157 113 
11.522388 -6.985075 -23.880596 183 154 110 
11.496296 -6.933333 -23.703703 182 155 112 
11.555555 -6.933333 -23.703703 183 156 113 
11.614815 -6.933333 -23.703703 188 161 118 
12.312500 -7.312500 -25.000000 188 161 118 
12.375000 -7.312500 -25.000000 182 158 114 
12.437500 -7.312500 -25.000000 185 161 117 
11.895911 -6.959108 -23.791822 185 161 117 
11.955390 -6.959108 -23.791822 180 156 112 
8.716418 -4.656716 -15.920398 183 154 114 
8.712872 -4.633663 -15.841584 189 160 120 
8.709359 -4.610837 -15.763547 185 156 116 
4.352941 -3.470588 -11.764706 195 164 120 
4.374312 -3.464220 -11.743119 196 165 121 
4.403670 -3.464220 -11.743119 197 164 121 
4.416819 -3.451554 -11.700183 194 163 117 
4.446069 -3.451554 -11.700183 187 156 109 
4.442831 -3.426497 -11.615245 184 153 107 
4.471869 -3.426497 -11.615245 183 152 106 
8.850000 -5.900000 -20.000000 185 154 110 
8.900000 -5.900000 -20.000000 188 157 113 
11.187500 -7.375000 -25.000000 195 164 120 
11.375000 -7.375000 -25.000000 190 159 115 
11.437500 -7.375000 -25.000000 198 167 123 
11.500000 -7.375000 -25.000000 194 163 119 
11.562500 -7.375000 -25.000000 192 161 117 
11.625000 -7.375000 -25.000000 191 160 116 
11.687500 -7.375000 -25.000000 185 156 112 
11.750000 -7.375000 -25.000000 187 158 114 
11.812500 -7.375000 -25.000000 185 156 112 
11.875000 -7.375000 -25.000000 182 153 109 
11.937500 -7.375000 -25.000000 180 151 107 
12.000000 -7.375000 -25.000000 182 153 109 
11.565543 -7.071161 -23.970037 183 154 112 
11.625468 -7.071161 -23.970037 182 155 112 
11.729323 -7.097744 -24.060150 181 154 111 
12.250000 -7.375000 -25.000000 187 160 117 
12.312500 -7.375000 -25.000000 190 163 120 
12.375000 -7.375000 -25.000000 185 161 117 
12.437500 -7.375000 -25.000000 184 157 114 
12.500000 -7.375000 -25.000000 179 155 111 
12.562500 -7.375000 -25.000000 178 154 110 
8.676617 -4.696517 -15.920398 185 156 116 
8.694789 -4.684864 -15.880894 180 151 111 
8.669950 -4.650246 -15.763547 185 156 116 
8.687961 -4.638821 -15.724815 184 155 115 
8.727273 -4.638821 -15.724815 188 159 117 
4.352941 -3.500000 -11.764706 198 165 122 
4.374312 -3.493578 -11.743119 194 161 118 
4.403670 -3.493578 -11.743119 203 170 127 
4.416819 -3.480804 -11.700183 196 163 120 
4.429873 -3.468124 -11.657559 184 153 109 
4.442831 -3.455535 -11.615245 191 160 116 
4.463768 -3.449275 -11.594203 192 161 117 
8.800000 -5.950000 -20.000000 187 156 112 
8.850000 -5.950000 -20.000000 190 159 115 
8.900000 -5.950000 -20.000000 193 162 118 
8.950000 -5.950000 -20.000000 184 153 109 
11.437500 -7.437500 -25.000000 180 149 105 
11.500000 -7.437500 -25.000000 186 155 111 
11.562500 -7.437500 -25.000000 183 152 108 
11.625000 -7.437500 -25.000000 182 151 107 
11.687500 -7.437500 -25.000000 185 156 112 
11.750000 -7.437500 -25.000000 179 150 106 
11.812500 -7.437500 -25.000000 176 147 103 
11.875000 -7.437500 -25.000000 177 148 104 
11.937500 -7.437500 -25.000000 179 150 106 
12.000000 -7.437500 -25.000000 180 151 107 
12.062500 -7.437500 -25.000000 181 152 110 
12.125000 -7.437500 -25.000000 184 155 113 
12.187500 -7.437500 -25.000000 187 158 116 
12.250000 -7.437500 -25.000000 185 158 115 
12.312500 -7.437500 -25.000000 183 154 112 
12.375000 -7.437500 -25.000000 184 155 113 
12.437500 -7.437500 -25.000000 184 155 113 
12.500000 -7.437500 -25.000000 184 157 114 
8.680000 -4.760000 -16.000000 185 156 116 
8.676617 -4.736319 -15.920398 193 164 124 
8.694789 -4.724566 -15.880894 186 157 117 
8.691358 -4.701234 -15.802469 186 157 117 
8.687961 -4.678133 -15.724815 189 160 120 
8.727273 -4.678133 -15.724815 189 160 120 
8.788177 -4.689655 -15.763547 189 160 120 
8.819512 -4.643902 -15.609756 183 154 114 
8.858537 -4.643902 -15.609756 187 158 118 
4.352941 -3.529412 -11.764706 194 161 118 
4.382353 -3.529412 -11.764706 196 163 120 
4.395605 -3.516484 -11.721612 200 167 124 
4.408759 -3.503650 -11.678832 196 163 120 
4.413793 -3.484574 -11.615245 188 157 113 
4.418773 -3.465704 -11.552346 196 165 121 
4.463768 -3.478261 -11.594203 195 164 120 
8.800000 -6.000000 -20.000000 190 159 115 
8.850000 -6.000000 -20.000000 189 158 114 
8.900000 -6.000000 -20.000000 185 154 110 
8.950000 -6.000000 -20.000000 184 153 109 
9.056603 -6.037736 -20.125786 188 157 113 
11.437500 -7.500000 -25.000000 184 153 109 
11.500000 -7.500000 -25.000000 185 154 110 
11.562500 -7.500000 -25.000000 181 150 106 
11.625000 -7.500000 -25.000000 182 151 107 
11.687500 -7.500000 -25.000000 186 157 113 
11.750000 -7.500000 -25.000000 184 155 111 
11.812500 -7.500000 -25.000000 178 149 105 
11.875000 -7.500000 -25.000000 177 148 104 
11.937500 -7.500000 -25.000000 182 151 107 
12.000000 -7.500000 -25.000000 183 154 110 
12.062500 -7.500000 -25.000000 186 157 113 
12.125000 -7.500000 -25.000000 186 157 113 
12.187500 -7.500000 -25.000000 190 161 117 
12.250000 -7.500000 -25.000000 187 158 114 
12.312500 -7.500000 -25.000000 186 157 113 
12.375000 -7.500000 -25.000000 188 159 115 
12.437500 -7.500000 -25.000000 184 155 111 
12.500000 -7.500000 -25.000000 181 154 109 
8.640000 -4.800000 -16.000000 184 155 115 
8.680000 -4.800000 -16.000000 180 151 111 
8.676617 -4.776119 -15.920398 181 152 112 
8.694789 -4.764268 -15.880894 182 153 113 
8.691358 -4.740741 -15.802469 182 153 113 
8.687961 -4.717445 -15.724815 190 161 121 
8.727273 -4.717445 -15.724815 189 160 120 
8.788177 -4.729064 -15.763547 186 157 117 
8.819512 -4.682927 -15.609756 180 151 111 
8.836983 -4.671533 -15.571776 182 153 113 
8.875913 -4.671533 -15.571776 193 164 124 
4.374312 -3.552294 -11.743119 202 169 126 
4.395605 -3.545788 -11.721612 190 157 114 
4.400729 -3.526412 -11.657559 193 160 117 
4.421818 -3.520000 -11.636364 189 158 114 
4.434783 -3.507246 -11.594203 193 161 120 
8.827586 -6.068965 -20.062696 189 158 114 
8.877743 -6.068965 -20.062696 189 158 114 
8.927899 -6.068965 -20.062696 187 156 112 
8.978056 -6.068965 -20.062696 189 158 114 
9.085174 -6.107255 -20.189274 189 158 114 
11.500000 -7.562500 -25.000000 187 156 112 
11.562500 -7.562500 -25.000000 195 162 119 
11.625000 -7.562500 -25.000000 194 163 119 
11.687500 -7.562500 -25.000000 185 156 112 
11.750000 -7.562500 -25.000000 182 153 109 
11.812500 -7.562500 -25.000000 176 147 103 
11.875000 -7.562500 -25.000000 178 149 105 
11.937500 -7.562500 -25.000000 185 154 110 
12.000000 -7.562500 -25.000000 183 154 110 
12.062500 -7.562500 -25.000000 186 157 113 
12.125000 -7.562500 -25.000000 186 155 111 
12.187500 -7.562500 -25.000000 185 156 112 
12.250000 -7.562500 -25.000000 185 156 112 
12.312500 -7.562500 -25.000000 187 158 114 
12.375000 -7.562500 -25.000000 187 158 114 
12.437500 -7.562500 -25.000000 179 150 106 
8.640000 -4.840000 -16.000000 186 157 117 
8.680000 -4.840000 -16.000000 183 155 115 
8.676617 -4.815920 -15.920398 176 147 107 
8.694789 -4.803970 -15.880894 178 149 109 
8.669950 -4.768473 -15.763547 175 146 106 
8.687961 -4.756757 -15.724815 179 150 110 
8.727273 -4.756757 -15.724815 183 154 114 
8.766584 -4.756757 -15.724815 187 158 118 
8.805897 -4.756757 -15.724815 186 157 117 
8.780488 -4.721951 -15.609756 181 152 112 
8.798054 -4.710462 -15.571776 181 152 112 
8.836983 -4.710462 -15.571776 186 157 117 
7.121951 -5.951220 -19.512196 192 157 115 
7.053255 -5.775148 -18.934912 193 160 117 
4.395605 -3.575092 -11.721612 189 156 113 
4.424909 -3.575092 -11.721612 190 157 114 
8.911392 -6.177215 -20.253164 185 154 110 
8.877743 -6.119122 -20.062696 188 157 113 
8.955975 -6.138365 -20.125786 191 160 116 
9.034700 -6.157729 -20.189274 192 161 117 
11.500000 -7.625000 -25.000000 190 159 115 
11.562500 -7.625000 -25.000000 204 173 129 
11.625000 -7.625000 -25.000000 199 168 124 
11.687500 -7.625000 -25.000000 180 151 107 
11.750000 -7.625000 -25.000000 187 158 114 
11.812500 -7.625000 -25.000000 183 154 110 
11.875000 -7.625000 -25.000000 184 155 111 
11.937500 -7.625000 -25.000000 185 156 112 
12.000000 -7.625000 -25.000000 182 153 109 
12.062500 -7.625000 -25.000000 187 158 114 
12.125000 -7.625000 -25.000000 190 159 115 
12.187500 -7.625000 -25.000000 187 158 114 
12.250000 -7.625000 -25.000000 190 159 115 
12.312500 -7.625000 -25.000000 188 159 117 
12.375000 -7.625000 -25.000000 184 155 113 
12.437500 -7.625000 -25.000000 181 152 108 
8.640000 -4.880000 -16.000000 185 156 114 
8.658354 -4.867830 -15.960100 188 159 119 
8.655087 -4.843672 -15.880894 178 149 109 
8.673267 -4.831683 -15.841584 182 153 113 
8.648648 -4.796069 -15.724815 178 149 109 
8.624391 -4.760976 -15.609756 179 149 111 
8.663415 -4.760976 -15.609756 183 154 114 
8.745098 -4.784314 -15.686275 186 157 117 
8.784314 -4.784314 -15.686275 182 153 113 
8.780488 -4.760976 -15.609756 179 150 110 
8.819512 -4.760976 -15.609756 185 156 116 
8.836983 -4.749392 -15.571776 188 159 119 
8.875913 -4.749392 -15.571776 187 158 118 
6.966967 -5.909910 -19.219219 192 159 116 
7.015015 -5.909910 -19.219219 193 160 117 
7.020895 -5.874627 -19.104477 197 164 121 
7.047619 -5.857143 -19.047619 190 157 114 
7.074184 -5.839763 -18.991098 197 166 122 
8.717607 -6.538206 -21.262459 195 164 120 
8.741722 -6.516556 -21.192053 186 155 111 
8.765676 -6.495049 -21.122112 177 146 102 
8.945687 -6.287540 -20.447285 189 158 114 
8.939683 -6.247619 -20.317461 194 163 119 
8.990477 -6.247619 -20.317461 190 159 115 
9.128205 -6.307693 -20.512821 181 150 106 
9.298701 -6.389610 -20.779221 186 155 111 
11.500000 -7.687500 -25.000000 184 153 109 
11.562500 -7.687500 -25.000000 182 151 107 
11.625000 -7.687500 -25.000000 180 149 105 
11.687500 -7.687500 -25.000000 185 154 110 
11.750000 -7.687500 -25.000000 187 158 114 
11.812500 -7.687500 -25.000000 187 156 112 
11.875000 -7.687500 -25.000000 181 152 108 
11.937500 -7.687500 -25.000000 178 149 105 
12.000000 -7.687500 -25.000000 183 154 110 
12.062500 -7.687500 -25.000000 190 159 115 
12.125000 -7.687500 -25.000000 194 163 119 
12.187500 -7.687500 -25.000000 188 157 113 
12.250000 -7.687500 -25.000000 186 153 110 
12.312500 -7.687500 -25.000000 183 154 112 
12.375000 -7.687500 -25.000000 185 156 116 
12.437500 -7.687500 -25.000000 185 156 114 
12.500000 -7.687500 -25.000000 185 156 114 
8.600000 -4.920000 -16.000000 180 151 109 
8.640000 -4.920000 -16.000000 177 148 106 
8.636816 -4.895523 -15.920398 178 149 109 
8.655087 -4.883375 -15.880894 181 152 112 
8.673267 -4.871287 -15.841584 182 153 113 
8.648648 -4.835381 -15.724815 180 151 111 
8.666667 -4.823529 -15.686275 179 149 111 
8.684597 -4.811736 -15.647922 185 156 116 
8.745098 -4.823529 -15.686275 185 156 116 
8.784314 -4.823529 -15.686275 185 156 116 
8.801956 -4.811736 -15.647922 187 158 118 
8.819512 -4.800000 -15.609756 195 166 126 
8.858537 -4.800000 -15.609756 193 164 124 
8.875913 -4.788321 -15.571776 188 159 119 
8.914842 -4.788321 -15.571776 186 157 117 
8.953772 -4.788321 -15.571776 189 160 120 
8.992701 -4.788321 -15.571776 194 165 125 
8.987893 -4.765133 -15.496368 193 164 124 
6.918919 -5.957958 -19.219219 196 163 120 
6.946108 -5.940120 -19.161676 189 156 113 
6.973135 -5.922388 -19.104477 189 156 113 
7.000000 -5.904762 -19.047619 194 161 118 
7.047619 -5.904762 -19.047619 195 162 119 
7.116418 -5.922388 -19.104477 201 168 125 
8.660066 -6.547855 -21.122112 191 160 116 
8.684211 -6.526316 -21.052631 192 161 117 
8.736842 -6.526316 -21.052631 189 158 114 
8.789474 -6.526316 -21.052631 200 169 125 
8.813115 -6.504918 -20.983606 197 166 122 
8.865574 -6.504918 -20.983606 189 158 114 
8.831169 -6.441558 -20.779221 189 158 114 
8.941176 -6.483660 -20.915033 191 160 116 
8.945687 -6.338658 -20.447285 198 167 123 
8.968153 -6.318471 -20.382166 198 167 123 
9.106110 -6.379421 -20.578777 192 161 117 
9.246754 -6.441558 -20.779221 186 155 111 
9.452146 -6.547855 -21.122112 184 153 109 
11.437500 -7.750000 -25.000000 187 156 112 
11.500000 -7.750000 -25.000000 182 151 107 
11.562500 -7.750000 -25.000000 186 155 111 
11.625000 -7.750000 -25.000000 188 157 113 
11.687500 -7.750000 -25.000000 183 152 108 
11.750000 -7.750000 -25.000000 184 153 109 
11.812500 -7.750000 -25.000000 185 154 110 
11.875000 -7.750000 -25.000000 181 150 106 
11.937500 -7.750000 -25.000000 180 151 107 
12.000000 -7.750000 -25.000000 178 149 105 
12.062500 -7.750000 -25.000000 186 155 111 
12.125000 -7.750000 -25.000000 190 159 115 
12.187500 -7.750000 -25.000000 180 149 105 
12.250000 -7.750000 -25.000000 176 143 100 
12.312500 -7.750000 -25.000000 174 145 103 
12.375000 -7.750000 -25.000000 182 153 111 
12.437500 -7.750000 -25.000000 186 157 115 
12.500000 -7.750000 -25.000000 189 160 118 
8.600000 -4.960000 -16.000000 183 154 112 
8.618454 -4.947631 -15.960100 178 149 107 
8.636816 -4.935323 -15.920398 177 148 108 
8.633663 -4.910891 -15.841584 180 151 111 
8.651852 -4.898766 -15.802469 183 154 114 
8.648648 -4.874693 -15.724815 181 152 112 
8.666667 -4.862745 -15.686275 178 148 110 
8.705882 -4.862745 -15.686275 179 150 110 
8.766584 -4.874693 -15.724815 179 150 110 
8.805897 -4.874693 -15.724815 182 153 113 
8.801956 -4.850856 -15.647922 183 154 114 
8.819512 -4.839025 -15.609756 196 167 127 
8.858537 -4.839025 -15.609756 194 165 125 
8.875913 -4.827250 -15.571776 195 166 126 
8.914842 -4.827250 -15.571776 188 159 119 
8.932039 -4.815534 -15.533980 189 160 120 
8.949153 -4.803874 -15.496368 192 163 123 
8.987893 -4.803874 -15.496368 190 161 121 
9.026634 -4.803874 -15.496368 186 157 117 
6.939759 -6.024096 -19.277109 195 162 119 
6.946108 -5.988024 -19.161676 188 157 113 
6.973135 -5.970149 -19.104477 178 145 102 
7.000000 -5.952381 -19.047619 185 154 110 
7.047619 -5.952381 -19.047619 189 158 114 
7.116418 -5.970149 -19.104477 198 167 123 
7.430341 -6.191950 -19.814241 196 163 120 
7.526480 -6.230530 -19.937695 187 156 112 
7.576324 -6.230530 -19.937695 189 158 114 
7.650000 -6.250000 -20.000000 188 157 113 
7.724138 -6.269592 -20.062696 190 159 115 
7.798742 -6.289308 -20.125786 186 155 111 
7.849057 -6.289308 -20.125786 189 158 114 
7.924290 -6.309148 -20.189274 191 160 116 
8.550819 -6.557377 -20.983606 187 156 112 
8.603279 -6.557377 -20.983606 192 161 117 
8.655738 -6.557377 -20.983606 192 161 117 
8.708197 -6.557377 -20.983606 190 159 115 
8.789474 -6.578948 -21.052631 197 166 122 
8.842105 -6.578948 -21.052631 190 159 115 
8.894737 -6.578948 -21.052631 190 159 115 
8.831169 -6.493506 -20.779221 193 162 118 
8.941176 -6.535948 -20.915033 191 160 116 
8.974359 -6.410256 -20.512821 196 165 121 
9.025641 -6.410256 -20.512821 188 157 113 
9.165049 -6.472492 -20.711973 181 150 106 
9.246754 -6.493506 -20.779221 186 155 111 
9.452146 -6.600660 -21.122112 187 156 112 
11.437500 -7.812500 -25.000000 191 160 116 
11.067669 -7.518797 -24.060150 190 159 115 
11.562500 -7.812500 -25.000000 189 158 114 
11.625000 -7.812500 -25.000000 188 155 112 
11.687500 -7.812500 -25.000000 183 150 107 
11.750000 -7.812500 -25.000000 181 150 106 
11.812500 -7.812500 -25.000000 182 151 107 
11.875000 -7.812500 -25.000000 184 151 108 
11.937500 -7.812500 -25.000000 184 153 109 
12.000000 -7.812500 -25.000000 180 151 107 
12.062500 -7.812500 -25.000000 182 153 109 
12.125000 -7.812500 -25.000000 187 156 112 
12.187500 -7.812500 -25.000000 183 152 108 
12.250000 -7.812500 -25.000000 183 152 108 
12.312500 -7.812500 -25.000000 185 156 114 
12.375000 -7.812500 -25.000000 188 159 115 
