ply
format ascii 1.0
element vertex 1111
property float x
property float y
property float z
property uchar red
property uchar green
property uchar blue
end_header
-0.122605 -8.827586 -12.260536 176 144 103 
-0.092486 -8.878613 -12.331407 176 144 103 
2.534653 -7.603961 -10.561056 182 150 109 
2.552632 -7.578948 -10.526316 178 146 107 
2.570492 -7.554098 -10.491803 179 147 108 
2.592471 -7.541735 -10.474631 182 150 111 
2.601626 -7.492683 -10.406504 182 150 111 
2.598071 -7.408360 -10.289389 181 149 111 
2.615385 -7.384615 -10.256411 182 150 111 
2.641026 -7.384615 -10.256411 182 150 111 
6.470588 -16.941177 -23.529411 176 144 105 
6.529412 -16.941177 -23.529411 176 144 105 
5.975308 -14.222222 -19.753086 181 147 109 
5.915152 -13.963636 -19.393940 180 146 108 
5.927711 -13.879519 -19.277109 176 147 107 
5.940120 -13.796407 -19.161676 177 148 108 
5.970149 -13.755224 -19.104477 176 147 107 
6.017910 -13.755224 -19.104477 175 146 106 
6.065671 -13.755224 -19.104477 174 145 105 
6.150150 -13.837838 -19.219219 172 143 103 
6.198198 -13.837838 -19.219219 171 142 102 
6.227545 -13.796407 -19.161676 173 141 102 
6.238095 -13.714286 -19.047619 172 140 101 
6.285714 -13.714286 -19.047619 170 138 99 
6.277286 -13.592920 -18.879057 172 140 101 
5.129187 -11.023924 -15.311005 177 145 106 
5.179856 -11.050360 -15.347722 178 146 107 
8.500000 -18.000000 -25.000000 172 143 103 
8.562500 -18.000000 -25.000000 176 144 105 
5.566910 -11.211679 -15.571776 170 138 99 
5.605839 -11.211679 -15.571776 175 143 104 
5.644769 -11.211679 -15.571776 178 146 107 
5.683698 -11.211679 -15.571776 177 145 106 
5.681159 -11.130435 -15.458938 177 145 106 
5.692307 -11.076923 -15.384615 175 143 104 
5.730769 -11.076923 -15.384615 172 140 101 
1.755184 -3.082274 -4.280936 167 138 98 
1.765886 -3.082274 -4.280936 169 140 100 
1.778969 -3.086403 -4.286671 171 142 100 
1.793289 -3.092618 -4.295302 170 141 99 
1.805238 -3.094694 -4.298187 169 140 98 
1.813548 -3.090543 -4.292421 167 138 96 
1.826729 -3.094694 -4.298187 166 137 95 
1.791349 -2.931298 -4.071247 170 140 102 
1.793540 -2.918303 -4.053198 174 145 105 
1.800253 -2.912769 -4.045512 172 143 101 
1.808081 -2.909091 -4.040404 171 142 102 
1.818182 -2.909091 -4.040404 171 141 105 
1.828283 -2.909091 -4.040404 170 140 102 
1.838384 -2.909091 -4.040404 169 139 101 
1.851992 -2.914611 -4.048071 168 138 100 
1.862113 -2.914611 -4.048071 170 138 100 
1.868687 -2.909091 -4.040404 171 139 101 
1.878788 -2.909091 -4.040404 168 136 98 
3.069444 -4.000000 -5.555555 166 137 97 
3.083333 -4.000000 -5.555555 159 130 90 
3.094536 -3.996531 -5.550737 162 133 93 
3.108413 -3.996531 -5.550737 163 134 94 
3.122290 -3.996531 -5.550737 163 134 94 
3.138889 -4.000000 -5.555555 163 134 94 
3.152778 -4.000000 -5.555555 165 136 96 
3.169418 -4.003475 -5.560382 167 138 98 
-0.998234 -2.721601 -3.766922 178 144 106 
-0.986494 -2.715209 -3.758074 179 145 107 
-0.975381 -2.710434 -3.751465 178 146 107 
-0.962617 -2.700935 -3.738318 177 145 106 
-0.953271 -2.700935 -3.738318 178 146 105 
-0.990196 -2.833333 -3.921569 178 146 105 
-0.941176 -2.833333 -3.921569 170 138 100 
-0.930233 -2.829865 -3.916769 171 142 102 
-0.920441 -2.829865 -3.916769 173 144 104 
-0.743662 -3.256338 -4.507042 165 136 96 
-0.732394 -3.256338 -4.507042 172 143 101 
-0.721127 -3.256338 -4.507042 175 146 106 
-0.709859 -3.256338 -4.507042 171 142 102 
-0.698592 -3.256338 -4.507042 175 146 106 
-0.687808 -3.258633 -4.510219 182 153 113 
-0.438617 -2.755661 -3.814064 181 152 112 
-0.429338 -2.757305 -3.816339 182 153 113 
-0.421305 -2.767205 -3.830042 182 153 113 
-0.411483 -2.765550 -3.827751 184 155 115 
-0.401434 -2.762246 -3.823178 186 157 117 
-0.391876 -2.762246 -3.823178 188 159 119 
-0.382090 -2.760597 -3.820895 189 160 120 
-0.372093 -2.757305 -3.816339 189 160 120 
-0.361045 -2.745843 -3.800475 190 161 121 
-0.351544 -2.745843 -3.800475 190 161 121 
-0.275229 -2.651376 -3.669725 184 155 113 
-0.265294 -2.643796 -3.659234 187 158 116 
-0.256146 -2.643796 -3.659234 189 160 118 
-1.605948 -17.189590 -23.791822 188 159 117 
-1.552239 -17.253731 -23.880596 187 160 117 
-1.486989 -17.189590 -23.791822 188 156 115 
-1.432836 -17.253731 -23.880596 188 156 115 
-1.437500 -18.062500 -25.000000 188 156 115 
-1.250000 -18.062500 -25.000000 191 159 118 
-1.187500 -18.062500 -25.000000 193 161 120 
-1.125000 -18.062500 -25.000000 186 157 115 
-1.062500 -18.062500 -25.000000 179 150 108 
-1.000000 -18.062500 -25.000000 178 149 107 
-0.937500 -18.062500 -25.000000 177 148 108 
-0.437500 -9.031250 -12.500000 172 143 101 
-0.405458 -9.013645 -12.475634 176 147 105 
-0.372816 -8.978641 -12.427184 177 148 106 
-0.340426 -8.943907 -12.379110 174 145 103 
-0.309478 -8.943907 -12.379110 173 144 102 
-0.214971 -8.875240 -12.284069 177 148 106 
-0.183556 -8.841300 -12.237094 174 145 103 
-0.153257 -8.858237 -12.260536 177 148 106 
-0.122605 -8.858237 -12.260536 181 148 107 
2.481848 -7.630363 -10.561056 175 146 106 
2.508251 -7.630363 -10.561056 183 150 109 
2.526316 -7.605263 -10.526316 181 148 107 
2.552632 -7.605263 -10.526316 179 147 108 
2.574713 -7.592775 -10.509031 182 150 111 
2.596721 -7.580328 -10.491803 184 152 113 
2.601626 -7.518699 -10.406504 182 150 111 
2.593900 -7.422151 -10.272873 177 145 107 
2.615385 -7.410256 -10.256411 183 149 111 
2.641026 -7.410256 -10.256411 182 148 110 
6.494465 -17.062731 -23.616236 178 146 107 
6.602231 -17.189590 -23.791822 178 146 107 
6.612546 -17.062731 -23.616236 178 146 107 
5.975308 -14.271605 -19.753086 177 143 105 
5.915152 -14.012121 -19.393940 179 145 107 
5.927711 -13.927711 -19.277109 179 147 108 
5.940120 -13.844312 -19.161676 177 145 106 
5.970149 -13.802985 -19.104477 177 145 106 
6.017910 -13.802985 -19.104477 177 145 106 
6.083832 -13.844312 -19.161676 175 143 104 
6.227545 -13.844312 -19.161676 175 143 104 
6.238095 -13.761905 -19.047619 174 142 103 
6.248521 -13.680473 -18.934912 170 138 99 
5.090909 -11.062201 -15.311005 173 141 102 
5.129187 -11.062201 -15.311005 177 145 106 
5.167464 -11.062201 -15.311005 179 147 108 
8.500000 -18.062500 -25.000000 178 144 106 
8.562500 -18.062500 -25.000000 173 141 102 
5.566910 -11.250608 -15.571776 165 133 94 
7.578948 -15.210526 -21.052631 167 135 96 
5.644769 -11.250608 -15.571776 169 137 98 
5.669903 -11.223301 -15.533980 170 138 99 
5.667470 -11.142169 -15.421687 171 139 100 
5.692307 -11.115385 -15.384615 172 140 101 
1.757535 -3.097120 -4.286671 166 137 97 
1.765886 -3.092977 -4.280936 170 141 101 
1.782550 -3.103356 -4.295302 171 144 101 
1.794493 -3.105440 -4.298187 172 143 101 
1.805238 -3.105440 -4.298187 172 143 101 
1.814765 -3.103356 -4.295302 173 144 102 
1.826729 -3.105440 -4.298187 172 143 101 
1.792405 -2.926582 -4.050633 174 144 108 
1.799116 -2.921036 -4.042956 172 142 104 
1.808081 -2.919192 -4.040404 170 140 102 
1.818182 -2.919192 -4.040404 170 140 102 
1.828283 -2.919192 -4.040404 172 142 104 
1.838384 -2.919192 -4.040404 174 144 106 
1.850822 -2.922882 -4.045512 176 144 106 
1.860936 -2.922882 -4.045512 173 141 103 
1.868687 -2.919192 -4.040404 169 137 99 
1.878788 -2.919192 -4.040404 166 136 98 
3.069444 -4.013889 -5.555555 169 139 101 
3.083333 -4.013889 -5.555555 170 141 101 
3.097222 -4.013889 -5.555555 168 139 99 
3.111111 -4.013889 -5.555555 168 139 99 
3.125000 -4.013889 -5.555555 168 139 99 
3.138889 -4.013889 -5.555555 170 141 101 
3.152778 -4.013889 -5.555555 169 140 100 
3.166667 -4.013889 -5.555555 168 139 99 
-1.147368 -3.052632 -4.210526 181 146 106 
-1.136842 -3.052632 -4.210526 178 145 104 
-1.125575 -3.050625 -4.207758 177 144 103 
-0.997647 -2.729412 -3.764706 177 144 103 
-0.986494 -2.724604 -3.758074 178 145 104 
-0.977099 -2.724604 -3.758074 179 146 105 
-0.963179 -2.711864 -3.740503 180 147 106 
-0.953828 -2.711864 -3.740503 180 148 107 
-0.941176 -2.843137 -3.921569 176 144 105 
-0.931373 -2.843137 -3.921569 171 142 102 
-0.743662 -3.267606 -4.507042 173 144 104 
-0.732394 -3.267606 -4.507042 177 148 108 
-0.720619 -3.265306 -4.503870 178 149 109 
-0.709360 -3.265306 -4.503870 174 145 105 
-0.698100 -3.265306 -4.503870 176 147 107 
-0.687324 -3.267606 -4.507042 180 151 111 
-0.676533 -3.269908 -4.510219 184 155 115 
-0.431138 -2.778443 -3.832335 184 155 115 
-0.421557 -2.778443 -3.832335 188 156 117 
-0.411730 -2.776780 -3.830042 188 159 119 
-0.401434 -2.771804 -3.823178 188 159 119 
-0.391876 -2.771804 -3.823178 191 162 122 
-0.382090 -2.770149 -3.820895 191 162 122 
-0.372315 -2.768497 -3.818616 191 162 122 
-0.361045 -2.755344 -3.800475 188 159 119 
-0.351544 -2.755344 -3.800475 184 155 115 
-0.275387 -2.662077 -3.671830 188 159 117 
-0.265294 -2.652945 -3.659234 189 160 118 
-0.256146 -2.652945 -3.659234 190 161 119 
-1.605948 -17.249071 -23.791822 190 161 119 
-1.546468 -17.249071 -23.791822 189 160 118 
-1.481481 -17.185184 -23.703703 189 160 118 
-1.422222 -17.185184 -23.703703 189 160 118 
-1.437500 -18.125000 -25.000000 189 160 118 
-1.375000 -18.125000 -25.000000 186 157 115 
-1.312500 -18.125000 -25.000000 188 159 117 
-1.250000 -18.125000 -25.000000 191 162 120 
-1.187500 -18.125000 -25.000000 190 161 119 
-1.125000 -18.125000 -25.000000 191 164 121 
-1.062500 -18.125000 -25.000000 189 160 118 
-1.000000 -18.125000 -25.000000 188 159 117 
-0.468750 -9.062500 -12.500000 189 160 118 
-0.437500 -9.062500 -12.500000 182 153 111 
-0.405458 -9.044834 -12.475634 185 156 114 
-0.372816 -9.009708 -12.427184 185 156 114 
-0.341085 -8.992249 -12.403101 181 149 108 
2.481848 -7.656765 -10.561056 178 149 109 
2.504119 -7.644152 -10.543657 179 146 105 
2.526316 -7.631579 -10.526316 179 146 105 
2.552632 -7.631579 -10.526316 180 147 106 
2.574713 -7.619048 -10.509031 183 148 110 
2.592471 -7.594108 -10.474631 183 149 111 
2.593193 -7.520259 -10.372771 179 147 108 
2.589744 -7.435897 -10.256411 177 143 106 
2.615385 -7.435897 -10.256411 181 147 109 
2.641026 -7.435897 -10.256411 182 148 110 
6.542751 -17.249071 -23.791822 176 144 105 
6.602231 -17.249071 -23.791822 177 145 106 
6.588235 -17.058823 -23.529411 178 146 107 
5.993808 -14.365325 -19.814241 172 138 100 
5.915152 -14.060606 -19.393940 173 139 101 
5.927711 -13.975904 -19.277109 178 144 106 
5.957958 -13.933934 -19.219219 177 145 106 
5.970149 -13.850746 -19.104477 176 144 105 
6.035928 -13.892216 -19.161676 174 142 103 
6.102102 -13.933934 -19.219219 174 142 103 
6.246246 -13.933934 -19.219219 176 144 105 
6.238095 -13.809524 -19.047619 174 142 103 
6.248521 -13.727811 -18.934912 173 141 102 
5.090909 -11.100478 -15.311005 173 141 102 
5.129187 -11.100478 -15.311005 175 143 104 
5.167464 -11.100478 -15.311005 177 145 106 
5.205741 -11.100478 -15.311005 178 146 107 
7.526316 -15.263158 -21.052631 164 132 93 
7.603961 -15.313531 -21.122112 164 132 93 
7.656765 -15.313531 -21.122112 166 134 95 
7.684210 -15.263158 -21.052631 168 136 97 
5.626794 -11.100478 -15.311005 170 138 99 
5.651551 -11.073986 -15.274463 171 139 100 
5.689737 -11.073986 -15.274463 171 139 100 
9.500000 -18.125000 -25.000000 166 134 95 
9.562500 -18.125000 -25.000000 167 133 95 
9.625000 -18.125000 -25.000000 171 139 100 
1.771812 -3.114094 -4.295302 171 142 102 
1.786147 -3.120377 -4.303968 175 146 104 
1.796906 -3.120377 -4.303968 174 145 105 
1.806452 -3.118279 -4.301075 174 145 105 
1.817204 -3.118279 -4.301075 175 146 104 
1.797980 -2.929293 -4.040404 172 142 104 
1.808081 -2.929293 -4.040404 172 142 104 
1.818182 -2.929293 -4.040404 170 140 102 
1.828283 -2.929293 -4.040404 170 140 104 
1.838384 -2.929293 -4.040404 173 139 102 
1.849653 -2.931143 -4.042956 171 139 101 
1.859760 -2.931143 -4.042956 171 137 100 
1.868687 -2.929293 -4.040404 169 137 99 
1.878788 -2.929293 -4.040404 168 136 98 
3.083333 -4.027778 -5.555555 173 144 104 
3.097222 -4.027778 -5.555555 172 140 101 
3.111111 -4.027778 -5.555555 168 139 99 
3.127715 -4.031277 -5.560382 169 140 100 
3.141616 -4.031277 -5.560382 169 140 100 
3.155517 -4.031277 -5.560382 166 137 97 
-1.147368 -3.063158 -4.210526 180 145 105 
-1.136842 -3.063158 -4.210526 180 145 105 
-1.125575 -3.061144 -4.207758 178 145 104 
-0.998234 -2.740436 -3.766922 175 142 101 
-0.986494 -2.733999 -3.758074 176 143 102 
-0.977099 -2.733999 -3.758074 179 146 105 
-0.963179 -2.721216 -3.740503 183 150 109 
-0.953828 -2.721216 -3.740503 179 147 106 
-0.731879 -3.276566 -4.503870 178 149 109 
-0.720619 -3.276566 -4.503870 174 145 105 
-0.709360 -3.276566 -4.503870 175 146 106 
-0.698100 -3.276566 -4.503870 180 151 111 
-0.687324 -3.278873 -4.507042 186 157 117 
-0.677010 -3.283498 -4.513399 194 165 123 
-0.421557 -2.788024 -3.832335 189 160 120 
-0.411730 -2.786355 -3.830042 190 161 121 
-0.401434 -2.781362 -3.823178 191 162 122 
-0.391876 -2.781362 -3.823178 192 163 123 
-0.381862 -2.778043 -3.818616 193 164 124 
-0.372093 -2.776386 -3.816339 188 159 119 
-0.361045 -2.764846 -3.800475 183 154 114 
-0.351544 -2.764846 -3.800475 177 149 109 
-0.275545 -2.672790 -3.673938 185 156 114 
-0.265446 -2.663615 -3.661327 185 156 114 
-0.256293 -2.663615 -3.661327 184 155 113 
-1.481481 -17.244444 -23.703703 189 160 118 
-1.449057 -17.569811 -24.150944 190 161 119 
-1.437500 -18.187500 -25.000000 184 155 113 
-1.375000 -18.187500 -25.000000 176 147 105 
-1.312500 -18.187500 -25.000000 178 149 107 
-1.250000 -18.187500 -25.000000 185 156 114 
-1.187500 -18.187500 -25.000000 191 162 120 
-1.125000 -18.187500 -25.000000 187 158 116 
-1.062500 -18.187500 -25.000000 183 156 113 
-0.500000 -9.093750 -12.500000 186 157 115 
-0.468750 -9.093750 -12.500000 189 160 118 
-0.436647 -9.076023 -12.475634 187 158 116 
-0.404669 -9.058366 -12.451362 188 159 117 
-0.372816 -9.040776 -12.427184 188 159 117 
-0.340426 -9.005803 -12.379110 185 156 114 
-0.309478 -9.005803 -12.379110 180 153 110 
2.485950 -7.695868 -10.578512 184 155 115 
2.504119 -7.670511 -10.543657 181 148 107 
2.526316 -7.657895 -10.526316 183 148 108 
2.552632 -7.657895 -10.526316 183 150 109 
2.574713 -7.645320 -10.509031 182 148 110 
2.592471 -7.620295 -10.474631 180 146 108 
2.588997 -7.533980 -10.355987 181 147 109 
2.589744 -7.461538 -10.256411 184 148 112 
2.615385 -7.461538 -10.256411 182 148 110 
6.602231 -17.308550 -23.791822 177 145 106 
6.146032 -14.780952 -20.317461 177 143 105 
6.024692 -14.370370 -19.753086 178 146 107 
5.963636 -14.109091 -19.393940 177 145 106 
5.975904 -14.024096 -19.277109 176 144 105 
6.006006 -13.981982 -19.219219 174 142 103 
6.054054 -13.981982 -19.219219 173 141 102 
6.120482 -14.024096 -19.277109 173 141 102 
6.246246 -13.981982 -19.219219 176 144 105 
6.219584 -13.816024 -18.991098 176 144 105 
6.248521 -13.775148 -18.934912 172 143 103 
5.115385 -11.192307 -15.384615 172 140 101 
5.129187 -11.138756 -15.311005 170 138 99 
5.167464 -11.138756 -15.311005 171 139 100 
5.205741 -11.138756 -15.311005 174 142 103 
7.603961 -15.366337 -21.122112 173 141 102 
7.682119 -15.417218 -21.192053 173 141 102 
7.684210 -15.315789 -21.052631 174 142 103 
5.600000 -11.085714 -15.238095 176 144 105 
5.159041 -10.143791 -13.943356 177 145 106 
5.171367 -10.099783 -13.882863 175 143 104 
5.183585 -10.056155 -13.822894 175 143 104 
9.437500 -18.187500 -25.000000 168 136 97 
9.500000 -18.187500 -25.000000 160 128 89 
9.562500 -18.187500 -25.000000 166 134 95 
9.625000 -18.187500 -25.000000 172 140 101 
1.790964 -3.139582 -4.315577 176 146 108 
1.801753 -3.139582 -4.315577 174 144 106 
1.702752 -2.847706 -3.914373 172 143 101 
1.713586 -2.849449 -3.916769 175 146 106 
1.722324 -2.847706 -3.914373 173 143 105 
1.797980 -2.939394 -4.040404 172 142 106 
1.810367 -2.943110 -4.045512 174 144 108 
1.818182 -2.939394 -4.040404 171 141 103 
1.828283 -2.939394 -4.040404 170 140 102 
1.838384 -2.939394 -4.040404 172 138 101 
1.850822 -2.943110 -4.045512 167 137 99 
1.859760 -2.941251 -4.042956 169 137 99 
1.868687 -2.939394 -4.040404 172 138 101 
1.878788 -2.939394 -4.040404 170 136 99 
3.088696 -4.048696 -5.565217 163 135 95 
3.099913 -4.045178 -5.560382 164 134 96 
3.113814 -4.045178 -5.560382 165 136 96 
3.127715 -4.045178 -5.560382 166 137 97 
3.144348 -4.048696 -5.565217 167 138 98 
3.161010 -4.052219 -5.570061 169 140 100 
3.174935 -4.052219 -5.570061 169 140 100 
-1.125575 -3.071663 -4.207758 175 142 101 
-0.998234 -2.749853 -3.766922 177 144 103 
-0.988235 -2.748235 -3.764706 179 146 105 
-0.977099 -2.743394 -3.758074 180 147 106 
-0.962617 -2.728972 -3.738318 178 144 106 
-0.953271 -2.728972 -3.738318 176 145 101 
-0.732911 -3.292459 -4.510219 182 153 113 
-0.720619 -3.287826 -4.503870 180 151 111 
-0.709360 -3.287826 -4.503870 182 153 113 
-0.698100 -3.287826 -4.503870 183 154 114 
-0.687808 -3.292459 -4.510219 188 159 119 
-0.678445 -3.301767 -4.522968 192 163 121 
-0.669504 -3.313475 -4.539007 186 157 115 
-0.411976 -2.797605 -3.832335 186 157 117 
-0.402154 -2.795931 -3.830042 187 158 118 
-0.391408 -2.787590 -3.818616 188 156 117 
-0.381862 -2.787590 -3.818616 189 160 120 
-0.371871 -2.784267 -3.814064 187 158 118 
-0.361045 -2.774347 -3.800475 185 156 116 
-0.351335 -2.772700 -3.798220 183 154 114 
-0.275545 -2.681975 -3.673938 183 154 112 
-0.265446 -2.672769 -3.661327 181 152 110 
-0.256293 -2.672769 -3.661327 181 152 110 
-1.437500 -18.250000 -25.000000 186 157 115 
-1.375000 -18.250000 -25.000000 185 156 114 
-1.312500 -18.250000 -25.000000 185 156 114 
-1.250000 -18.250000 -25.000000 188 159 117 
-1.187500 -18.250000 -25.000000 188 159 117 
-1.125000 -18.250000 -25.000000 186 157 115 
-0.529183 -9.089494 -12.451362 188 159 117 
-0.498054 -9.089494 -12.451362 189 160 118 
-0.467836 -9.107212 -12.475634 189 162 119 
-0.436647 -9.107212 -12.475634 191 162 120 
-0.404669 -9.089494 -12.451362 189 160 118 
-0.373541 -9.089494 -12.451362 187 158 116 
-0.340426 -9.036751 -12.379110 188 161 118 
-0.239163 -6.983558 -9.566517 184 155 113 
-0.215247 -6.983558 -9.566517 180 151 109 
0.080808 -4.719192 -6.464646 181 149 108 
0.096872 -4.714430 -6.458123 178 146 105 
0.112903 -4.709677 -6.451613 178 146 105 
0.129032 -4.709677 -6.451613 181 149 108 
2.512397 -7.722314 -10.578512 185 152 111 
2.526316 -7.684210 -10.526316 186 153 112 
2.552632 -7.684210 -10.526316 186 153 112 
2.578947 -7.684210 -10.526316 183 149 111 
2.592471 -7.646481 -10.474631 181 147 109 
2.584814 -7.547657 -10.339257 184 150 112 
2.589744 -7.487179 -10.256411 188 152 116 
2.615385 -7.487179 -10.256411 182 148 110 
6.225080 -15.022508 -20.578777 178 144 106 
6.196826 -14.831746 -20.317461 177 143 105 
6.247619 -14.831746 -20.317461 179 145 107 
6.400000 -15.070968 -20.645161 176 144 105 
6.557377 -15.318033 -20.983606 174 142 103 
6.631579 -15.368421 -21.052631 174 140 102 
6.750831 -15.521595 -21.262459 173 141 102 
7.013699 -16.000000 -21.917809 175 141 103 
7.068493 -16.000000 -21.917809 177 143 105 
6.933333 -15.573334 -21.333334 174 140 102 
6.294294 -14.030030 -19.219219 172 140 101 
6.267062 -13.863502 -18.991098 171 139 100 
6.168116 -13.542029 -18.550724 168 136 97 
5.153846 -11.230769 -15.384615 167 135 96 
5.192307 -11.230769 -15.384615 168 136 97 
5.230769 -11.230769 -15.384615 171 139 100 
7.680000 -15.573334 -21.333334 174 142 103 
7.707641 -15.521595 -21.262459 176 144 105 
7.709571 -15.419142 -21.122112 179 145 107 
5.124183 -10.178649 -13.943356 178 146 107 
5.125541 -10.112555 -13.852814 177 145 106 
5.160173 -10.112555 -13.852814 175 143 104 
5.183585 -10.090713 -13.822894 174 142 103 
9.437500 -18.250000 -25.000000 173 141 102 
9.500000 -18.250000 -25.000000 171 139 100 
9.562500 -18.250000 -25.000000 173 141 102 
9.625000 -18.250000 -25.000000 171 139 101 
1.692966 -2.857492 -3.914373 172 143 103 
1.702752 -2.857492 -3.914373 172 143 103 
1.711491 -2.855746 -3.911980 173 144 104 
1.720220 -2.854001 -3.909591 172 142 104 
1.729994 -2.854001 -3.909591 168 138 100 
1.800253 -2.953224 -4.045512 170 140 102 
1.821632 -2.955092 -4.048071 174 144 106 
1.831752 -2.955092 -4.048071 174 144 106 
1.841872 -2.955092 -4.048071 175 143 105 
1.851992 -2.955092 -4.048071 171 141 103 
1.860936 -2.953224 -4.045512 173 141 103 
1.868687 -2.949495 -4.040404 175 141 104 
1.878788 -2.949495 -4.040404 171 139 101 
3.161010 -4.066144 -5.570061 167 137 99 
3.174935 -4.066144 -5.570061 169 140 100 
-0.998234 -2.759270 -3.766922 181 148 107 
-0.988235 -2.757647 -3.764706 180 147 106 
-0.977099 -2.752789 -3.758074 178 145 104 
-0.962617 -2.738318 -3.738318 175 142 101 
-0.953271 -2.738318 -3.738318 175 143 102 
-0.720619 -3.299085 -4.503870 187 158 118 
-0.709360 -3.299085 -4.503870 187 158 118 
-0.698592 -3.301409 -4.507042 185 156 116 
-0.688779 -3.308398 -4.516584 186 157 117 
-0.679406 -3.317764 -4.529370 184 154 116 
-0.669504 -3.324823 -4.539007 183 153 115 
-0.659091 -3.329545 -4.545455 185 155 117 
-0.381862 -2.797136 -3.818616 189 160 120 
-0.372315 -2.797136 -3.818616 193 161 122 
-0.362336 -2.793802 -3.814064 190 161 119 
-0.351544 -2.783848 -3.800475 192 160 119 
-0.339423 -2.762522 -3.771361 192 159 118 
-0.326531 -2.733528 -3.731778 191 159 118 
-0.275545 -2.691159 -3.673938 186 157 115 
-0.265446 -2.681922 -3.661327 185 156 114 
-0.256293 -2.681922 -3.661327 185 156 114 
-1.375000 -18.312500 -25.000000 195 166 124 
-1.312500 -18.312500 -25.000000 195 166 124 
-1.250000 -18.312500 -25.000000 192 163 121 
-1.187500 -18.312500 -25.000000 192 163 121 
-1.125000 -18.312500 -25.000000 189 160 118 
-0.529183 -9.120623 -12.451362 187 158 116 
-0.498054 -9.120623 -12.451362 186 157 115 
-0.467836 -9.138402 -12.475634 188 159 117 
-0.436647 -9.138402 -12.475634 191 162 120 
-0.404669 -9.120623 -12.451362 185 156 114 
-0.371373 -9.067698 -12.379110 187 158 116 
-0.262687 -6.997015 -9.552238 194 162 121 
-0.238806 -6.997015 -9.552238 194 161 120 
-0.214925 -6.997015 -9.552238 192 159 118 
-0.191617 -7.017964 -9.580838 188 159 117 
0.064581 -4.730575 -6.458123 185 153 112 
0.080645 -4.725806 -6.451613 182 150 109 
0.096774 -4.725806 -6.451613 183 151 110 
0.112903 -4.725806 -6.451613 184 152 111 
0.129032 -4.725806 -6.451613 183 150 109 
2.530478 -7.723229 -10.543657 184 151 110 
2.552632 -7.710526 -10.526316 184 151 110 
2.578947 -7.710526 -10.526316 184 150 112 
2.592471 -7.672668 -10.474631 185 150 112 
2.576489 -7.549114 -10.305958 185 150 112 
2.589744 -7.512821 -10.256411 184 150 113 
2.615385 -7.512821 -10.256411 182 148 110 
7.500000 -18.312500 -25.000000 178 144 106 
6.285714 -15.220779 -20.779221 175 141 103 
6.317152 -15.171521 -20.711973 169 135 97 
6.389610 -15.220779 -20.779221 180 146 108 
6.504918 -15.370492 -20.983606 182 147 109 
6.600660 -15.471948 -21.122112 178 143 105 
6.697674 -15.574751 -21.262459 178 144 106 
6.795987 -15.678929 -21.404682 179 145 107 
7.013699 -16.054794 -21.917809 177 145 106 
7.068493 -16.054794 -21.917809 174 139 101 
7.074830 -15.945579 -21.768707 171 137 99 
7.202749 -16.109966 -21.993128 169 137 98 
7.333333 -16.277779 -22.222221 167 135 96 
7.414634 -16.334496 -22.299652 169 137 98 
7.470383 -16.334496 -22.299652 172 140 101 
7.500000 -16.277779 -22.222221 172 140 101 
7.608392 -16.391609 -22.377623 169 137 98 
7.532646 -16.109966 -21.993128 171 139 100 
7.755932 -15.891525 -21.694916 173 141 102 
7.810170 -15.891525 -21.694916 171 137 99 
7.733333 -15.626667 -21.333334 171 137 99 
7.760798 -15.574751 -21.262459 176 142 104 
5.101952 -10.169197 -13.882863 176 144 105 
5.114471 -10.125270 -13.822894 175 143 104 
5.149028 -10.125270 -13.822894 175 143 104 
5.183585 -10.125270 -13.822894 174 142 103 
9.437500 -18.312500 -25.000000 173 145 105 
9.500000 -18.312500 -25.000000 174 145 105 
9.562500 -18.312500 -25.000000 173 144 104 
9.625000 -18.312500 -25.000000 171 143 103 
1.683180 -2.867278 -3.914373 171 141 103 
1.692966 -2.867278 -3.914373 174 144 106 
1.701712 -2.865526 -3.911980 171 141 103 
1.710446 -2.863775 -3.909591 170 140 102 
1.719170 -2.862027 -3.907204 177 148 108 
1.728938 -2.862027 -3.907204 177 148 108 
1.800253 -2.963338 -4.045512 173 144 104 
1.823939 -2.968968 -4.053198 176 146 108 
1.834072 -2.968968 -4.053198 175 145 107 
1.841872 -2.965212 -4.048071 176 146 108 
1.854338 -2.968968 -4.053198 175 143 105 
1.863291 -2.967089 -4.050633 171 141 103 
1.871049 -2.963338 -4.045512 171 141 103 
1.881163 -2.963338 -4.045512 170 140 102 
4.574359 -6.010256 -8.205129 168 138 100 
4.588988 -6.002561 -8.194622 170 141 101 
4.609475 -6.002561 -8.194622 170 140 102 
4.618135 -5.987228 -8.173691 168 138 100 
3.161010 -4.080070 -5.570061 167 137 99 
3.174935 -4.080070 -5.570061 165 135 97 
-0.988817 -2.768687 -3.766922 177 144 103 
-0.977673 -2.763807 -3.760282 177 144 103 
-0.967704 -2.762184 -3.758074 177 144 103 
-0.869424 -3.815085 -5.190592 188 158 120 
-0.855061 -3.808907 -5.182186 187 157 119 
-0.842105 -3.808907 -5.182186 184 155 115 
-0.821171 -3.772254 -5.132318 185 156 116 
-0.710359 -3.315011 -4.510219 187 158 118 
-0.699577 -3.317348 -4.513399 187 158 118 
-0.690729 -3.329087 -4.529370 187 158 118 
-0.680851 -3.336170 -4.539007 185 156 116 
-0.669979 -3.338538 -4.542229 183 153 115 
-0.659091 -3.340909 -4.545455 188 158 120 
-0.326531 -2.742857 -3.731778 188 156 115 
-0.275387 -2.698795 -3.671830 186 157 115 
-0.265294 -2.689537 -3.659234 187 158 116 
-0.256146 -2.689537 -3.659234 186 157 115 
-1.375000 -18.375000 -25.000000 190 163 120 
-1.312500 -18.375000 -25.000000 192 165 122 
-1.250000 -18.375000 -25.000000 193 164 122 
-1.187500 -18.375000 -25.000000 194 165 123 
-1.125000 -18.375000 -25.000000 192 160 119 
-0.529183 -9.151751 -12.451362 189 156 115 
-0.497087 -9.133981 -12.427184 190 158 117 
-0.467836 -9.169591 -12.475634 191 158 117 
-0.435798 -9.151751 -12.451362 192 160 119 
-0.314199 -7.105740 -9.667674 185 153 112 
-0.287856 -7.052474 -9.595202 186 151 111 
-0.262687 -7.020895 -9.552238 186 154 113 
-0.238806 -7.020895 -9.552238 186 154 113 
-0.214925 -7.020895 -9.552238 190 158 117 
-0.191617 -7.041916 -9.580838 191 162 120 
0.064516 -4.741935 -6.451613 187 155 114 
0.080645 -4.741935 -6.451613 181 149 108 
0.096774 -4.741935 -6.451613 180 148 107 
0.112903 -4.741935 -6.451613 178 146 105 
0.128902 -4.737160 -6.445116 176 143 102 
0.145015 -4.737160 -6.445116 176 143 102 
2.538843 -7.775207 -10.578512 184 151 110 
2.561056 -7.762376 -10.561056 184 151 110 
2.578947 -7.736842 -10.526316 184 150 112 
2.596721 -7.711475 -10.491803 184 150 112 
2.576489 -7.574879 -10.305958 185 150 112 
2.589744 -7.538462 -10.256411 185 149 113 
2.615385 -7.538462 -10.256411 182 148 110 
6.357616 -15.576159 -21.192053 176 142 104 
6.347541 -15.422951 -20.983606 179 145 107 
6.379085 -15.372549 -20.915033 182 148 110 
6.452459 -15.422951 -20.983606 183 149 111 
6.547855 -15.524753 -21.122112 183 149 111 
6.644518 -15.627907 -21.262459 179 145 107 
6.697674 -15.627907 -21.262459 180 146 108 
6.795987 -15.732442 -21.404682 181 147 109 
6.872483 -15.785234 -21.476511 181 147 109 
7.020408 -16.000000 -21.768707 178 144 106 
7.074830 -16.000000 -21.768707 180 145 107 
7.178082 -16.109589 -21.917809 176 144 105 
7.282759 -16.220690 -22.068966 175 143 104 
7.388889 -16.333334 -22.222221 176 144 105 
7.444445 -16.333334 -22.222221 178 146 107 
7.500000 -16.333334 -22.222221 178 146 107 
7.555555 -16.333334 -22.222221 177 145 106 
7.455782 -16.000000 -21.768707 174 142 103 
7.808874 -16.054607 -21.843004 175 143 104 
7.863481 -16.054607 -21.843004 174 140 102 
7.759197 -15.732442 -21.404682 172 138 100 
7.786667 -15.680000 -21.333334 173 139 101 
7.813953 -15.627907 -21.262459 174 142 103 
5.114471 -10.159827 -13.822894 176 144 105 
5.137931 -10.137931 -13.793103 175 143 104 
9.437500 -18.375000 -25.000000 170 141 101 
9.500000 -18.375000 -25.000000 172 143 103 
9.562500 -18.375000 -25.000000 172 143 103 
9.625000 -18.375000 -25.000000 173 144 104 
1.895190 -3.376884 -4.594400 175 145 107 
1.683180 -2.877064 -3.914373 175 145 107 
1.691931 -2.875306 -3.911980 174 144 106 
1.701712 -2.875306 -3.911980 175 145 107 
1.710446 -2.873549 -3.909591 173 143 105 
1.718121 -2.870043 -3.904820 175 146 106 
1.727883 -2.870043 -3.904820 173 144 104 
1.836398 -2.982879 -4.058339 172 142 104 
1.844205 -2.979101 -4.053198 171 141 103 
1.856690 -2.982879 -4.058339 170 140 102 
1.864471 -2.979101 -4.053198 169 139 101 
1.872233 -2.975332 -4.048071 168 138 100 
1.881163 -2.973451 -4.045512 169 139 101 
1.885318 -2.964083 -4.032766 172 142 104 
1.740741 -2.722222 -3.703704 171 141 103 
1.748988 -2.720648 -3.701562 171 141 103 
4.574359 -6.030769 -8.205129 166 136 98 
4.588988 -6.023047 -8.194622 165 136 96 
4.609475 -6.023047 -8.194622 167 137 99 
4.618135 -6.007663 -8.173691 169 139 101 
-0.989982 -2.781379 -3.771361 174 141 100 
-0.978824 -2.776471 -3.764706 175 142 101 
-0.969412 -2.776471 -3.764706 176 142 104 
-0.882401 -3.828062 -5.190592 187 158 118 
-0.868720 -3.824960 -5.186386 189 160 120 
-0.855061 -3.821862 -5.182186 187 158 118 
-0.841424 -3.818770 -5.177993 187 158 118 
-0.822490 -3.791165 -5.140562 182 153 113 
-0.715909 -3.352273 -4.545455 180 151 111 
-0.702052 -3.340410 -4.529370 186 157 117 
-0.692199 -3.347518 -4.539007 189 160 120 
-0.681818 -3.352273 -4.545455 192 163 123 
-0.670931 -3.354655 -4.548685 195 166 126 
-0.275387 -2.707975 -3.671830 188 156 115 
-0.265294 -2.698685 -3.659234 189 157 116 
-0.256146 -2.698685 -3.659234 188 156 115 
-1.250000 -18.437500 -25.000000 188 156 115 
-1.187500 -18.437500 -25.000000 184 155 113 
-1.125000 -18.437500 -25.000000 187 154 113 
-1.062500 -18.437500 -25.000000 185 153 112 
-0.497087 -9.165049 -12.427184 186 154 113 
-0.464217 -9.129594 -12.379110 187 155 114 
-0.338880 -7.140696 -9.682300 187 155 114 
-0.313726 -7.119155 -9.653092 180 148 107 
-0.287856 -7.076462 -9.595202 178 146 105 
-0.262687 -7.044776 -9.552238 182 150 109 
-0.238806 -7.044776 -9.552238 186 153 112 
-0.215247 -7.055306 -9.566517 187 155 114 
-0.191904 -7.076462 -9.595202 190 157 116 
0.048387 -4.758065 -6.451613 187 158 116 
0.064516 -4.758065 -6.451613 186 154 113 
0.112790 -4.753273 -6.445116 182 150 109 
0.121097 -4.465468 -6.054873 182 149 108 
0.135721 -4.448633 -6.032045 182 147 107 
2.578073 -7.840531 -10.631229 184 151 110 
2.596026 -7.814569 -10.596026 184 150 112 
2.600985 -7.750411 -10.509031 185 150 112 
2.572347 -7.588424 -10.289389 185 150 112 
2.589744 -7.564103 -10.256411 185 149 113 
2.615385 -7.564103 -10.256411 182 148 110 
6.357616 -15.629139 -21.192053 176 142 104 
6.368421 -15.526316 -21.052631 180 146 108 
6.421052 -15.526316 -21.052631 183 149 111 
6.473684 -15.526316 -21.052631 183 149 111 
6.547855 -15.577558 -21.122112 182 148 110 
6.622517 -15.629139 -21.192053 180 146 108 
6.720000 -15.733334 -21.333334 182 148 110 
6.795987 -15.785954 -21.404682 184 150 112 
6.872483 -15.838926 -21.476511 184 150 112 
7.020408 -16.054422 -21.768707 182 147 109 
7.050848 -16.000000 -21.694916 183 149 111 
7.129251 -16.054422 -21.768707 182 150 111 
7.232877 -16.164383 -21.917809 180 148 109 
7.312715 -16.219931 -21.993128 181 149 110 
7.367698 -16.219931 -21.993128 183 151 112 
7.422680 -16.219931 -21.993128 184 152 113 
7.426621 -16.109215 -21.843004 182 150 111 
7.380471 -15.892256 -21.548822 176 144 105 
7.548173 -15.681063 -21.262459 183 151 112 
7.808874 -16.109215 -21.843004 186 154 115 
7.863481 -16.109215 -21.843004 185 151 113 
7.759197 -15.785954 -21.404682 182 148 110 
7.812709 -15.785954 -21.404682 180 146 108 
7.866221 -15.785954 -21.404682 179 147 108 
5.103448 -10.172414 -13.793103 179 147 108 
5.104925 -10.107066 -13.704496 178 146 107 
5.150215 -10.128756 -13.733906 173 141 102 
9.437500 -18.437500 -25.000000 169 141 101 
9.500000 -18.437500 -25.000000 170 141 101 
9.562500 -18.437500 -25.000000 171 142 102 
9.625000 -18.437500 -25.000000 170 142 102 
9.687500 -18.437500 -25.000000 172 142 104 
1.870875 -3.385940 -4.591105 180 150 112 
1.882353 -3.385940 -4.591105 183 153 115 
1.893831 -3.385940 -4.591105 184 154 116 
1.675444 -2.890386 -3.919167 172 142 104 
1.683180 -2.886850 -3.914373 172 142 104 
1.691931 -2.885086 -3.911980 175 145 107 
1.701712 -2.885086 -3.911980 176 146 108 
1.709402 -2.881563 -3.907204 172 142 104 
1.718121 -2.879805 -3.904820 171 142 102 
1.727883 -2.879805 -3.904820 169 140 100 
1.836398 -2.993025 -4.058339 172 142 104 
1.846544 -2.993025 -4.058339 172 142 104 
1.857868 -2.994924 -4.060914 171 141 103 
1.869206 -2.996825 -4.063492 171 141 103 
1.878173 -2.994924 -4.060914 170 140 102 
1.881163 -2.983565 -4.045512 173 141 103 
1.729480 -2.728324 -3.699422 172 142 104 
1.738728 -2.728324 -3.699422 169 139 101 
1.747977 -2.728324 -3.699422 167 137 99 
4.533333 -6.051282 -8.205129 168 138 100 
4.542200 -6.035806 -8.184143 167 137 101 
4.556833 -6.028097 -8.173691 167 137 99 
4.571429 -6.020408 -8.163265 166 136 98 
4.591837 -6.020408 -8.163265 162 132 94 
4.612245 -6.020408 -8.163265 160 130 92 
4.632653 -6.020408 -8.163265 162 132 94 
-0.990566 -2.792453 -3.773585 172 139 98 
-0.978824 -2.785882 -3.764706 172 139 98 
-0.969412 -2.785882 -3.764706 172 139 98 
-0.883117 -3.844156 -5.194805 190 161 121 
-0.868720 -3.837925 -5.186386 191 162 122 
-0.855061 -3.834818 -5.182186 186 157 117 
-0.840744 -3.828618 -5.173808 185 156 116 
-0.822490 -3.804016 -5.140562 182 153 113 
-0.808340 -3.797915 -5.132318 180 151 111 
-0.704545 -3.363636 -4.545455 188 159 119 
-0.693182 -3.363636 -4.545455 187 158 118 
-0.682788 -3.368421 -4.551920 187 158 118 
-0.671886 -3.370819 -4.555160 195 166 126 
-0.275387 -2.717154 -3.671830 185 153 112 
-0.265294 -2.707833 -3.659234 186 154 113 
-0.256146 -2.707833 -3.659234 184 152 111 
-0.578313 -9.510040 -12.851406 184 152 111 
-1.062500 -18.500000 -25.000000 182 150 109 
-0.498054 -9.214007 -12.451362 183 151 110 
-0.363636 -7.175757 -9.696970 186 154 113 
-0.338880 -7.164902 -9.682300 185 153 112 
-0.314199 -7.154078 -9.667674 182 150 109 
-0.288288 -7.111111 -9.609610 179 147 106 
-0.262687 -7.068657 -9.552238 183 154 112 
-0.238806 -7.068657 -9.552238 188 155 114 
-0.215247 -7.079223 -9.566517 184 152 111 
-0.191904 -7.100450 -9.595202 183 150 109 
0.015123 -4.476370 -6.049150 186 154 113 
0.030303 -4.484848 -6.060606 187 154 113 
0.045455 -4.484848 -6.060606 185 156 114 
0.064516 -4.774194 -6.451613 185 153 112 
0.106061 -4.484848 -6.060606 189 157 116 
0.120755 -4.467925 -6.037736 190 157 116 
0.135721 -4.463714 -6.032045 192 159 118 
0.150943 -4.467925 -6.037736 189 156 115 
2.572347 -7.614148 -10.289389 185 150 112 
2.589744 -7.589744 -10.256411 185 149 113 
2.611200 -7.577600 -10.240000 182 148 110 
6.378737 -15.734220 -21.262459 183 149 111 
6.368421 -15.578947 -21.052631 180 146 108 
6.421052 -15.578947 -21.052631 177 143 105 
6.473684 -15.578947 -21.052631 180 146 108 
6.547855 -15.630363 -21.122112 181 147 109 
6.622517 -15.682119 -21.192053 179 145 107 
6.697674 -15.734220 -21.262459 181 147 109 
6.795987 -15.839465 -21.404682 182 150 111 
6.872483 -15.892617 -21.476511 183 149 111 
7.020408 -16.108843 -21.768707 182 148 110 
7.050848 -16.054237 -21.694916 183 151 112 
7.129251 -16.108843 -21.768707 182 150 111 
7.208191 -16.163822 -21.843004 181 149 110 
7.312715 -16.274914 -21.993128 182 150 111 
7.367698 -16.274914 -21.993128 184 152 113 
7.422680 -16.274914 -21.993128 184 152 113 
7.401361 -16.108843 -21.768707 183 151 112 
7.331104 -15.839465 -21.404682 177 145 106 
7.598662 -15.839465 -21.404682 178 146 107 
7.835617 -16.219177 -21.917809 183 151 112 
7.890411 -16.219177 -21.917809 186 152 114 
7.811448 -15.946128 -21.548822 184 150 112 
7.865320 -15.946128 -21.548822 184 150 112 
7.866221 -15.839465 -21.404682 182 150 111 
5.081545 -10.163090 -13.733906 182 150 111 
5.083156 -10.098081 -13.646055 180 148 109 
5.150215 -10.163090 -13.733906 180 148 109 
9.437500 -18.500000 -25.000000 176 147 107 
9.500000 -18.500000 -25.000000 175 146 106 
9.562500 -18.500000 -25.000000 176 147 107 
9.625000 -18.500000 -25.000000 175 146 106 
9.687500 -18.500000 -25.000000 174 145 105 
1.859397 -3.397418 -4.591105 178 148 110 
1.870875 -3.397418 -4.591105 181 151 113 
1.882353 -3.397418 -4.591105 182 152 114 
1.619632 -2.905521 -3.926380 179 149 111 
1.629448 -2.905521 -3.926380 175 145 107 
1.639264 -2.905521 -3.926380 175 145 107 
1.666667 -2.901961 -3.921569 172 142 104 
1.675444 -2.900184 -3.919167 170 140 102 
1.683180 -2.896636 -3.914373 170 140 102 
1.691931 -2.894866 -3.911980 173 143 105 
1.699634 -2.891331 -3.907204 174 144 106 
1.708359 -2.889567 -3.904820 169 139 101 
1.716027 -2.886045 -3.900061 167 138 98 
1.727883 -2.889567 -3.904820 164 135 95 
1.836398 -3.003170 -4.058339 172 142 104 
1.846544 -3.003170 -4.058339 172 143 103 
1.859048 -3.006984 -4.063492 173 144 104 
1.870394 -3.008894 -4.066074 172 143 103 
1.879365 -3.006984 -4.063492 173 143 105 
1.719237 -2.735991 -3.697285 172 142 104 
1.728481 -2.735991 -3.697285 171 141 103 
1.738728 -2.737572 -3.699422 169 139 101 
1.748988 -2.739156 -3.701562 166 136 98 
4.524422 -6.087404 -8.226221 167 135 97 
4.527529 -6.064021 -8.194622 167 135 97 
4.542200 -6.056266 -8.184143 170 140 102 
4.556833 -6.048531 -8.173691 167 137 99 
4.571429 -6.040816 -8.163265 165 135 97 
4.591837 -6.040816 -8.163265 164 134 96 
4.612245 -6.040816 -8.163265 163 133 95 
4.626751 -6.033121 -8.152866 166 136 98 
4.647134 -6.033121 -8.152866 169 137 99 
-0.990566 -2.801887 -3.773585 174 141 100 
-0.978824 -2.795294 -3.764706 172 139 98 
-0.969412 -2.795294 -3.764706 170 137 96 
-0.883117 -3.857143 -5.194805 186 157 117 
-0.868720 -3.850891 -5.186386 190 161 121 
-0.855061 -3.847773 -5.182186 185 156 116 
-0.840744 -3.841552 -5.173808 182 153 113 
-0.822490 -3.816867 -5.140562 181 152 112 
-0.808989 -3.813804 -5.136436 182 153 113 
-0.705046 -3.377399 -4.548685 187 158 118 
-0.694168 -3.379801 -4.551920 186 157 117 
-0.682788 -3.379801 -4.551920 187 158 118 
-0.671408 -3.379801 -4.551920 190 160 122 
-0.660028 -3.379801 -4.551920 192 163 123 
-0.275229 -2.724771 -3.669725 183 152 108 
-0.264991 -2.713878 -3.655054 179 150 106 
-0.256000 -2.715429 -3.657143 181 150 106 
-0.574850 -9.485030 -12.774451 189 156 113 
-0.541833 -9.466135 -12.749004 184 153 109 
-0.498054 -9.245136 -12.451362 185 152 109 
-0.363636 -7.200000 -9.696970 189 156 113 
-0.338880 -7.189107 -9.682300 187 156 112 
-0.314199 -7.178248 -9.667674 186 153 110 
-0.288288 -7.135135 -9.609610 188 155 112 
-0.262687 -7.092537 -9.552238 187 154 111 
-0.238806 -7.092537 -9.552238 186 153 110 
-0.215247 -7.103139 -9.566517 184 151 108 
0.000000 -4.500000 -6.060606 182 150 109 
0.015123 -4.491493 -6.049150 181 149 108 
0.030274 -4.495743 -6.054873 184 151 110 
0.045455 -4.500000 -6.060606 180 151 109 
0.060721 -4.508539 -6.072106 184 152 111 
0.075901 -4.508539 -6.072106 187 154 113 
0.091082 -4.508539 -6.072106 187 155 114 
0.106061 -4.500000 -6.060606 189 157 116 
0.120983 -4.491493 -6.049150 191 158 117 
0.135849 -4.483019 -6.037736 191 158 117 
0.151372 -4.495743 -6.054873 190 158 117 
2.598071 -7.639872 -10.289389 185 149 113 
6.378737 -15.787375 -21.262459 185 151 113 
6.368421 -15.631579 -21.052631 185 151 113 
6.421052 -15.631579 -21.052631 186 152 114 
6.473684 -15.631579 -21.052631 182 150 111 
6.547855 -15.683168 -21.122112 179 147 108 
6.622517 -15.735100 -21.192053 178 146 107 
6.697674 -15.787375 -21.262459 179 147 108 
6.818792 -15.946309 -21.476511 182 150 111 
6.965986 -16.163265 -21.768707 181 149 110 
7.068493 -16.273973 -21.917809 179 147 108 
7.098976 -16.218430 -21.843004 182 150 111 
7.153584 -16.218430 -21.843004 179 147 108 
7.208191 -16.218430 -21.843004 178 146 107 
7.312715 -16.329897 -21.993128 179 147 108 
7.418685 -16.442907 -22.145329 182 150 111 
7.474049 -16.442907 -22.145329 182 150 111 
7.426621 -16.218430 -21.843004 180 148 109 
7.380471 -16.000000 -21.548822 177 145 106 
7.384615 -15.892977 -21.404682 178 146 107 
7.438127 -15.892977 -21.404682 182 150 111 
7.491639 -15.892977 -21.404682 181 149 110 
7.545150 -15.892977 -21.404682 179 147 108 
7.598662 -15.892977 -21.404682 179 147 108 
7.835617 -16.273973 -21.917809 182 150 111 
7.890411 -16.273973 -21.917809 182 148 110 
7.811448 -16.000000 -21.548822 182 148 110 
7.865320 -16.000000 -21.548822 184 150 112 
7.892617 -15.946309 -21.476511 181 149 110 
5.083156 -10.132196 -13.646055 179 147 108 
9.500000 -18.562500 -25.000000 176 147 107 
9.562500 -18.562500 -25.000000 177 148 108 
9.625000 -18.562500 -25.000000 177 148 108 
1.859397 -3.408895 -4.591105 176 146 108 
1.870875 -3.408895 -4.591105 178 148 110 
1.882353 -3.408895 -4.591105 175 145 107 
1.619632 -2.915337 -3.926380 169 139 101 
1.629448 -2.915337 -3.926380 165 135 97 
1.638259 -2.913550 -3.923973 170 140 102 
1.648069 -2.913550 -3.923973 173 143 105 
1.656863 -2.911765 -3.921569 174 144 106 
1.665646 -2.909982 -3.919167 173 143 105 
1.675444 -2.909982 -3.919167 173 143 105 
1.683180 -2.906422 -3.914373 171 141 105 
1.691931 -2.904645 -3.911980 171 141 103 
1.699634 -2.901099 -3.907204 170 140 102 
1.708359 -2.899329 -3.904820 166 136 98 
1.716027 -2.895795 -3.900061 165 136 96 
1.800381 -3.020979 -4.068659 164 135 95 
1.828571 -3.017143 -4.063492 169 140 100 
1.836398 -3.013316 -4.058339 169 140 100 
1.846544 -3.013316 -4.058339 170 141 101 
1.860229 -3.019060 -4.066074 170 141 101 
1.870394 -3.019060 -4.066074 170 141 101 
1.880559 -3.019060 -4.066074 171 143 103 
1.719237 -2.745234 -3.697285 170 140 102 
1.727483 -2.743649 -3.695150 171 141 103 
1.738728 -2.746821 -3.699422 169 139 101 
4.562500 -6.187500 -8.333333 168 136 98 
4.541935 -6.131613 -8.258064 166 134 96 
4.533333 -6.092308 -8.205129 164 132 94 
4.542200 -6.076726 -8.184143 161 131 93 
4.556833 -6.068965 -8.173691 159 129 91 
4.571429 -6.061224 -8.163265 160 130 92 
4.591837 -6.061224 -8.163265 164 134 96 
4.612245 -6.061224 -8.163265 168 138 100 
4.632653 -6.061224 -8.163265 168 138 100 
4.653061 -6.061224 -8.163265 170 140 102 
4.673470 -6.061224 -8.163265 173 141 103 
-0.989399 -2.808009 -3.769140 175 142 101 
-0.976526 -2.798122 -3.755868 176 143 102 
-0.967136 -2.798122 -3.755868 176 143 102 
-0.868720 -3.863857 -5.186386 185 156 116 
-0.855061 -3.860729 -5.182186 187 158 118 
-0.840065 -3.851373 -5.169629 186 157 117 
-0.821830 -3.826645 -5.136436 184 155 115 
-0.807692 -3.820513 -5.128205 182 153 113 
-0.705548 -3.391181 -4.551920 183 154 114 
-0.694662 -3.393594 -4.555160 187 158 118 
-0.683274 -3.393594 -4.555160 182 153 113 
-0.671886 -3.393594 -4.555160 181 153 113 
-0.660028 -3.391181 -4.551920 187 158 118 
-0.275229 -2.733945 -3.669725 183 152 108 
-0.263337 -2.706016 -3.632236 182 151 107 
-0.254257 -2.706016 -3.632236 182 151 105 
-0.244344 -2.696833 -3.619910 183 152 108 
-0.610442 -9.574297 -12.851406 194 161 118 
-0.573705 -9.498008 -12.749004 194 161 118 
-0.532290 -9.330724 -12.524462 188 155 112 
-0.389058 -7.246201 -9.726444 186 153 110 
-0.363636 -7.224242 -9.696970 189 156 113 
-0.338880 -7.213313 -9.682300 186 153 110 
-0.314199 -7.202417 -9.667674 186 153 110 
-0.288288 -7.159159 -9.609610 191 158 115 
-0.263473 -7.137724 -9.580838 187 154 111 
-0.239163 -7.127055 -9.566517 183 150 107 
-0.215569 -7.137724 -9.580838 185 152 109 
-0.015166 -4.519431 -6.066351 179 147 106 
0.000000 -4.510880 -6.054873 175 143 102 
0.015137 -4.510880 -6.054873 181 149 108 
0.030303 -4.515152 -6.060606 185 153 112 
0.045455 -4.515152 -6.060606 184 152 111 
0.060664 -4.519431 -6.066351 188 156 115 
0.075901 -4.523719 -6.072106 191 160 116 
0.091082 -4.523719 -6.072106 190 158 117 
0.106061 -4.515152 -6.060606 191 158 117 
0.121097 -4.510880 -6.054873 193 160 119 
0.136106 -4.506616 -6.049150 191 158 117 
6.325582 -15.840531 -21.262459 187 153 115 
6.378737 -15.840531 -21.262459 188 154 116 
6.368421 -15.684211 -21.052631 189 155 117 
6.421052 -15.684211 -21.052631 190 156 118 
6.473684 -15.684211 -21.052631 187 153 115 
6.569536 -15.788079 -21.192053 183 151 112 
6.644518 -15.840531 -21.262459 181 149 110 
6.720000 -15.893333 -21.333334 180 148 109 
6.911565 -16.217688 -21.768707 183 151 112 
7.086505 -16.498270 -22.145329 182 150 111 
7.191638 -16.613241 -22.299652 179 147 108 
7.222222 -16.555555 -22.222221 178 146 107 
7.277778 -16.555555 -22.222221 177 145 106 
7.333333 -16.555555 -22.222221 175 143 104 
7.970037 -17.857677 -23.970037 179 145 107 
8.375000 -18.625000 -25.000000 179 147 108 
8.437500 -18.625000 -25.000000 179 147 108 
8.500000 -18.625000 -25.000000 177 145 106 
8.000000 -17.401461 -23.357664 177 145 107 
8.058394 -17.401461 -23.357664 183 151 113 
7.564626 -16.217688 -21.768707 187 155 117 
7.567567 -16.108109 -21.621622 188 156 118 
7.595960 -16.053871 -21.548822 187 155 117 
7.649832 -16.053871 -21.548822 186 154 116 
7.862543 -16.384880 -21.993128 188 156 118 
7.917526 -16.384880 -21.993128 186 152 114 
7.811448 -16.053871 -21.548822 183 148 110 
7.865320 -16.053871 -21.548822 182 148 110 
8.430107 -17.089605 -22.939068 178 146 107 
9.500000 -18.625000 -25.000000 176 147 107 
9.562500 -18.625000 -25.000000 175 146 106 
9.625000 -18.625000 -25.000000 175 146 106 
1.860732 -3.422828 -4.594400 175 145 107 
1.870875 -3.420373 -4.591105 175 145 107 
1.883704 -3.422828 -4.594400 173 143 105 
1.893831 -3.420373 -4.591105 171 141 103 
1.629448 -2.925153 -3.926380 171 141 103 
1.638259 -2.923360 -3.923973 172 142 104 
1.647059 -2.921569 -3.921569 174 144 106 
1.655848 -2.919780 -3.919167 173 143 105 
1.665646 -2.919780 -3.919167 172 142 104 
1.672372 -2.914425 -3.911980 170 140 102 
1.682152 -2.914425 -3.911980 172 142 104 
1.689866 -2.910867 -3.907204 172 142 104 
1.698597 -2.909091 -3.904820 168 138 100 
1.704200 -2.902009 -3.895314 164 135 95 
1.711854 -2.898480 -3.890578 166 137 97 
1.800381 -3.031151 -4.068659 168 139 99 
1.838730 -3.027302 -4.063492 167 138 98 
1.850064 -3.029225 -4.066074 168 139 99 
1.860229 -3.029225 -4.066074 169 140 100 
1.872774 -3.033079 -4.071247 169 140 100 
1.880559 -3.029225 -4.066074 170 141 101 
1.728481 -2.754477 -3.697285 170 140 102 
4.556567 -6.200260 -8.322496 164 132 94 
4.553687 -6.168176 -8.279430 166 134 96 
4.562581 -6.152258 -8.258064 166 134 96 
4.565553 -6.128535 -8.226221 159 131 92 
4.574359 -6.112821 -8.205129 164 134 96 
4.594872 -6.112821 -8.205129 167 137 99 
4.609475 -6.104994 -8.194622 169 139 101 
4.629961 -6.104994 -8.194622 168 138 100 
4.632653 -6.081633 -8.163265 173 143 105 
4.653061 -6.081633 -8.163265 177 145 107 
4.673470 -6.081633 -8.163265 174 142 104 
4.693878 -6.081633 -8.163265 171 138 103 
4.714286 -6.081633 -8.163265 172 140 102 
4.734694 -6.081633 -8.163265 171 138 103 
-0.989399 -2.817432 -3.769140 175 142 101 
-0.976526 -2.807512 -3.755868 181 148 107 
-0.960933 -2.789504 -3.731778 184 151 110 
-0.951603 -2.789504 -3.731778 178 146 105 
-0.855061 -3.873684 -5.182186 186 157 117 
-0.840065 -3.864297 -5.169629 184 154 116 
-0.821830 -3.839486 -5.136436 183 155 115 
-0.807692 -3.833333 -5.128205 186 158 118 
-0.706050 -3.404982 -4.555160 182 154 114 
-0.694662 -3.404982 -4.555160 184 156 116 
-0.683274 -3.404982 -4.555160 179 150 110 
-0.671886 -3.404982 -4.555160 177 148 108 
-0.660498 -3.404982 -4.555160 180 151 111 
-0.262890 -2.710482 -3.626062 185 154 110 
-0.252252 -2.693694 -3.603604 183 152 108 
-0.243243 -2.693694 -3.603604 181 150 106 
-0.573705 -9.529881 -12.749004 193 160 117 
-0.529183 -9.307393 -12.451362 189 158 114 
-0.389058 -7.270517 -9.726444 184 151 108 
-0.363636 -7.248485 -9.696970 184 151 108 
-0.339394 -7.248485 -9.696970 180 147 104 
-0.314199 -7.226586 -9.667674 181 148 105 
-0.288722 -7.193985 -9.624060 185 154 110 
-0.263868 -7.172414 -9.595202 186 151 109 
-0.239521 -7.161677 -9.580838 184 151 108 
-0.216216 -7.183183 -9.609610 186 153 110 
-0.193062 -7.215686 -9.653092 186 153 110 
-0.015137 -4.526017 -6.054873 182 150 109 
0.000000 -4.526017 -6.054873 189 157 116 
0.015137 -4.526017 -6.054873 187 155 114 
0.030303 -4.530303 -6.060606 182 150 109 
0.045455 -4.530303 -6.060606 177 145 104 
0.060664 -4.534597 -6.066351 178 146 105 
0.075829 -4.534597 -6.066351 182 150 109 
0.091082 -4.538899 -6.072106 183 151 112 
0.106161 -4.534597 -6.066351 184 152 111 
0.121097 -4.526017 -6.054873 187 154 113 
0.136235 -4.526017 -6.054873 185 152 111 
6.325582 -15.893687 -21.262459 189 155 117 
6.378737 -15.893687 -21.262459 189 155 117 
6.368421 -15.736842 -21.052631 187 153 115 
6.421052 -15.736842 -21.052631 186 152 114 
6.473684 -15.736842 -21.052631 189 157 118 
6.591362 -15.893687 -21.262459 188 154 116 
